ply
format ascii 1.0
element vertex 711
property float x
property float y
property float z
property float nx
property float ny
property float nz
property uchar diffuse_red
property uchar diffuse_green
property uchar diffuse_blue
end_header
-0.226692 0.825058 -3.34283 -0.341376 -0.203498 0.917633 182 181 174
-0.178499 0.801868 -3.31486 -0.530309 0.523379 0.666968 178 175 168
-0.162213 0.80098 -3.29346 -0.626419 0.43021 0.650014 180 179 171
-0.152901 0.781848 -3.23291 0.242093 0.397103 0.885269 181 180 172
-0.134862 0.778476 -3.21847 -0.0401153 0.0731188 0.996516 182 183 175
-0.134993 0.765242 -3.21841 -0.438375 0.262822 0.859507 183 183 176
-0.120734 0.77004 -3.21169 -0.420888 0.359864 0.832677 183 182 176
-0.0951989 0.763382 -3.20336 -0.491455 0.338434 0.802455 184 185 179
-0.0783254 0.763328 -3.2027 0.13423 0.223116 0.965506 185 186 180
-0.0667379 0.756242 -3.20757 -0.21224 0.480626 0.850854 188 189 182
-0.0377507 0.754371 -3.17847 -0.158451 0.307412 0.938292 185 186 177
-0.0377507 0.754371 -3.17847 -0.158451 0.307412 0.938292 185 186 178
-0.0377507 0.754371 -3.17847 -0.158451 0.307412 0.938292 185 186 178
-0.030904 0.744793 -3.16635 -0.347831 0.31477 0.883139 177 178 171
-0.0308503 0.744856 -3.16641 -0.349733 0.315406 0.88216 177 178 171
-0.0308503 0.744856 -3.16641 -0.349733 0.315406 0.88216 177 178 171
-0.0215082 0.733247 -3.16048 -0.216699 0.216061 0.952029 177 177 170
-0.0162197 0.744387 -3.15442 -0.177688 0.122627 0.976417 172 172 165
0.00760281 0.742582 -3.16594 -0.559737 0.316117 0.766006 165 162 156
0.0107284 0.728196 -3.15095 -0.209383 0.176611 0.961752 125 116 108
0.0590302 0.726181 -3.13223 -0.377057 -0.0749437 0.923153 191 196 188
0.0693083 0.719162 -3.12674 -0.101031 -0.184533 0.97762 190 194 186
0.0687114 0.710046 -3.13018 -0.0348546 -0.261647 0.964534 191 194 186
0.0822826 0.713034 -3.11815 0.170008 -0.337659 0.925788 191 195 187
0.101556 0.716262 -3.11946 -0.211972 -0.250576 0.944606 175 178 171
0.116335 0.705008 -3.12688 -0.9807 0.0850758 0.17604 133 126 116
0.107802 0.700299 -3.10871 -0.980027 -0.122124 0.156947 141 137 128
0.125689 0.699422 -3.08798 -0.93458 0.271566 0.229809 142 138 132
0.12928 0.688566 -3.06521 -0.911726 0.304308 0.275956 147 144 139
0.129731 0.688194 -3.06612 -0.932411 0.277351 0.2317 143 138 132
0.134827 0.682095 -3.0268 -0.977677 0.0876964 0.190937 135 132 129
0.142241 0.673478 -3.00889 -0.982523 -0.156938 0.100097 130 122 118
0.14564 0.66089 -2.98662 -0.944517 -0.308285 0.113352 130 121 115
0.158703 0.654242 -2.9589 -0.838408 -0.240806 0.488962 141 134 129
0.158762 0.642359 -2.93167 -0.504013 -0.82537 0.254431 142 136 130
0.174286 0.644274 -2.92135 -0.197006 -0.867423 0.456909 151 153 147
0.289571 0.595073 -2.80649 -0.623493 0.54253 0.562954 52 61 64
0.339456 0.573397 -2.75539 -0.191504 0.741131 0.643468 133 194 110
0.424789 0.539749 -2.68282 -0.461075 0.52713 0.713824 134 205 113
0.405022 0.540846 -2.68223 -0.342497 0.611215 0.713521 136 206 112
0.441781 0.545307 -2.68116 -0.585136 0.245992 0.772725 156 216 152
0.450329 0.53106 -2.66874 -0.394563 0.165976 0.903755 152 214 144
0.526157 0.534375 -2.68082 0.122855 -0.0997507 0.987399 161 179 188
0.546284 0.527942 -2.67965 0.0163059 0.0123953 0.99979 59 57 55
0.566653 0.527691 -2.67788 -0.0164751 0.00306712 0.99986 49 44 36
0.592171 0.510362 -2.63005 -0.979166 -0.19288 -0.0634915 137 141 128
0.590676 0.496524 -2.60826 -0.958439 -0.26447 0.107008 142 144 132
0.593382 0.494874 -2.57085 -0.989758 -0.07864 0.119142 128 134 114
0.597232 0.487402 -2.54522 -0.995079 -0.056473 0.0814157 171 182 169
0.597431 0.485106 -2.55317 -0.995247 -0.0301742 0.0925904 162 172 155
0.599191 0.475605 -2.53186 -0.969054 -0.111657 0.220152 193 205 197
0.609016 0.469429 -2.51768 -0.786254 -0.214249 0.57957 204 217 214
0.610552 0.464939 -2.5185 -0.805032 -0.17595 0.566538 205 219 216
0.616278 0.475425 -2.50616 -0.685042 -0.215907 0.695774 220 232 231
0.621791 0.468829 -2.50323 -0.56357 -0.249966 0.787341 218 230 229
0.639781 0.468165 -2.49336 -0.382235 -0.208212 0.900302 223 233 233
0.632056 0.472038 -2.49664 -0.455433 -0.218648 0.863003 220 230 230
0.646373 0.453909 -2.49194 -0.36069 -0.183426 0.914471 229 237 237
0.665555 0.455273 -2.49322 0.0462009 -0.0801077 0.995715 232 238 238
0.6719 0.454434 -2.49341 0.0408897 -0.189163 0.981094 231 237 237
0.716579 0.461647 -2.51116 -0.0644437 -0.0347946 0.997315 233 239 239
0.6719 0.454434 -2.49341 0.0408897 -0.189163 0.981094 231 237 237
0.730365 0.453571 -2.50671 -0.530461 0.140462 0.835992 231 237 237
0.738744 0.442287 -2.4889 -0.553001 0.150138 0.819542 231 237 237
0.751493 0.45087 -2.48043 -0.767125 0.0692524 0.637749 226 234 234
0.752205 0.447091 -2.47897 -0.745265 0.0217138 0.666414 226 234 234
0.758827 0.437668 -2.47209 -0.602373 0.470044 0.64514 226 233 233
0.773061 0.435042 -2.44907 -0.936639 -0.258526 0.236371 228 235 234
0.781102 0.434616 -2.43402 -0.690482 -0.463446 0.555384 227 235 234
0.789929 0.41758 -2.43159 -0.716027 -0.461063 0.524143 226 235 235
0.810101 0.417862 -2.42541 -0.0281026 0.268725 0.962807 225 233 233
0.822694 0.420476 -2.40667 -0.0604651 -0.112332 0.991829 221 228 230
0.872427 0.40651 -2.42548 -0.0881192 -0.547593 0.832092 205 214 214
1.12139 0.39228 -2.44828 -0.998844 -0.0474906 0.00749683 42 33 32
1.12139 0.39228 -2.44828 -0.998844 -0.0474906 0.00749683 42 33 32
-0.438444 0.858188 -3.44672 -0.465822 -0.353666 0.811129 35 20 16
-0.392059 0.857142 -3.44089 -0.392421 0.10394 0.913894 77 60 60
-0.37714 0.84468 -3.44318 0.0573911 -0.268044 0.961696 164 158 157
-0.387496 0.839037 -3.42664 -0.563847 0.119753 0.817151 153 145 147
-0.359455 0.841055 -3.41271 -0.704148 0.131018 0.697861 174 170 166
-0.347356 0.829081 -3.39815 0.00617281 -0.102638 0.9947 177 174 167
-0.344014 0.813366 -3.33948 -0.357006 0.34206 0.869219 178 175 167
-0.318509 0.804345 -3.31488 -0.565429 0.132511 0.814083 180 177 170
-0.287978 0.810413 -3.32745 -0.653424 0.366002 0.662631 178 175 167
-0.230691 0.799849 -3.33769 -0.524568 0.521035 0.673313 173 169 161
-0.225172 0.801684 -3.34741 -0.182629 0.690183 0.70021 174 169 161
-0.230691 0.799849 -3.33769 -0.524568 0.521035 0.673313 173 169 161
-0.205722 0.800159 -3.33216 -0.430631 0.590007 0.68297 175 171 163
-0.188053 0.76875 -3.2654 -0.507537 0.40832 0.758736 184 182 173
-0.188514 0.768287 -3.26235 -0.459709 0.533695 0.709815 184 182 173
-0.159099 0.776345 -3.26491 -0.6236 0.427351 0.654595 189 189 184
-0.163665 0.77247 -3.26873 -0.320364 0.551032 0.770539 184 183 175
-0.163639 0.772376 -3.26908 -0.323743 0.54552 0.773045 184 183 175
-0.150724 0.767608 -3.23906 -0.178648 0.710653 0.680483 183 183 175
-0.129329 0.74325 -3.20059 -0.535351 -0.466997 0.703785 185 185 180
-0.112542 0.745385 -3.19633 -0.527 -0.142586 0.837819 185 186 180
-0.0946383 0.739875 -3.18882 -0.460935 0.0528864 0.885857 188 189 184
-0.0858843 0.731776 -3.18584 -0.380126 0.146348 0.913283 195 197 193
-0.0696468 0.74373 -3.19593 -0.235788 0.589566 0.772538 188 188 181
-0.0473435 0.724919 -3.16175 -0.109565 0.120957 0.986593 187 188 183
-0.0305762 0.720686 -3.16422 -0.153216 0.200091 0.967723 197 198 195
-0.011326 0.715838 -3.15497 -0.220651 0.221477 0.949874 195 196 194
0.0108658 0.704876 -3.14806 -0.0266072 -0.29593 0.954839 129 123 115
0.0418628 0.714203 -3.15608 0.105035 -0.176962 0.978597 166 163 156
0.0462066 0.716549 -3.14638 -0.711392 -0.12889 0.690875 181 182 175
0.056832 0.707697 -3.1296 -0.526048 0.0256529 0.850068 191 194 187
0.105067 0.687765 -3.13064 -0.221073 -0.420646 0.879877 138 136 127
0.0969022 0.704226 -3.1302 -0.210088 -0.271363 0.939268 183 186 178
0.113808 0.68192 -3.1003 -0.954226 -0.133762 0.267507 124 112 102
0.108902 0.678988 -3.10026 -0.988344 -0.0951575 0.118832 123 110 99
0.12052 0.672263 -3.08268 -0.981627 0.114749 0.152448 117 104 93
0.133675 0.676149 -3.0462 -0.974123 0.138561 0.178566 137 130 125
0.151199 0.65335 -3.0108 -0.954965 -0.290409 -0.0608623 122 107 99
0.149561 0.640864 -2.96376 -0.713027 -0.689898 0.12503 132 120 113
0.372188 0.624155 -3.03033 -0.634361 0.466037 0.616762 139 136 132
0.278957 0.572511 -2.80579 -0.863067 0.390824 0.319955 102 116 121
0.29394 0.57512 -2.78554 -0.631509 0.323205 0.704794 153 186 161
0.314774 0.574463 -2.76851 -0.498509 0.581855 0.642599 144 195 138
0.313517 0.552589 -2.74675 -0.382429 0.700864 0.602112 128 193 105
0.344612 0.552032 -2.73607 -0.0579167 0.617536 0.784407 132 200 109
0.407913 0.52618 -2.69043 -0.691025 0.254971 0.676369 134 207 111
0.433794 0.526827 -2.67792 -0.569259 0.230752 0.789112 133 204 112
0.440311 0.512152 -2.664 -0.117703 0.198271 0.973054 133 204 111
0.463515 0.514291 -2.67237 -0.162019 -0.290601 0.943028 137 205 120
0.518317 0.519977 -2.68254 0.124295 -0.118824 0.985105 170 194 198
0.535901 0.507947 -2.68155 -0.506024 0.309075 0.80524 87 96 92
0.547868 0.507051 -2.6727 -0.00245461 0.208825 0.97795 61 61 53
0.5558 0.506717 -2.67585 -0.0281551 0.310359 0.950202 57 55 47
0.572562 0.503805 -2.66067 -0.52112 0.0566256 0.851603 69 74 63
0.588583 0.49388 -2.64557 -0.998598 0.0521635 0.00905994 150 168 152
0.590053 0.485008 -2.62495 -0.96803 0.0818653 0.237098 177 193 186
0.591007 0.475042 -2.60733 -0.951724 -0.116305 0.284068 178 188 184
0.59328 0.485429 -2.5898 -0.967411 -0.137785 0.212442 124 122 107
0.597771 0.475679 -2.57266 -0.975347 -0.0838894 0.204111 126 129 110
0.599445 0.464914 -2.55404 -0.991936 -0.113545 0.0563071 156 164 146
0.610747 0.45406 -2.53686 -0.638405 0.182615 0.747724 206 221 216
0.615189 0.456911 -2.51233 -0.692428 -0.171745 0.700747 217 229 228
0.611562 0.450194 -2.51629 -0.796838 -0.0467807 0.602379 214 227 227
0.626942 0.452542 -2.50227 -0.474658 -0.124672 0.871296 225 235 235
0.64976 0.435291 -2.49378 -0.313452 -0.0412686 0.948707 227 236 236
0.733317 0.43173 -2.49391 -0.275045 0.426055 0.861874 233 238 238
0.744171 0.430425 -2.48008 -0.277919 0.530486 0.800841 231 236 235
0.74897 0.415943 -2.47053 -0.381414 0.325796 0.86509 230 236 235
0.770789 0.40764 -2.45561 -0.389956 0.166556 0.905645 225 233 232
0.765113 0.425193 -2.45936 -0.617004 0.197214 0.761848 227 234 234
0.775361 0.418945 -2.44777 -0.594724 -0.122959 0.794471 226 234 234
0.795892 0.399779 -2.42615 -0.344643 -0.390521 0.853648 221 229 230
0.818474 0.400826 -2.42424 -0.350168 -0.409914 0.842231 217 226 227
0.850014 0.405187 -2.42918 -0.117868 -0.194077 0.97388 213 222 223
0.860254 0.402758 -2.42709 -0.300732 -0.614043 0.729734 207 217 218
0.886929 0.387406 -2.43354 -0.0261279 -0.174527 0.984306 161 158 155
0.907744 0.386667 -2.42869 -0.0182257 -0.190937 0.981433 155 148 144
0.989678 0.378175 -2.45505 -0.117245 -0.128474 0.984758 197 202 202
1.11446 0.362068 -2.45364 -0.981896 0.0564876 -0.1808 41 33 32
-0.424799 0.837692 -3.44215 0.0392485 -0.134296 0.990164 41 25 22
-0.400635 0.828152 -3.44849 -0.506469 0.242547 0.827442 149 137 138
-0.403167 0.837721 -3.44481 -0.333436 0.101428 0.937301 110 95 97
-0.406858 0.839664 -3.43896 -0.440973 0.0132685 0.897423 78 62 63
-0.377302 0.830642 -3.42378 -0.519087 0.201084 0.830731 169 166 163
-0.363035 0.817821 -3.41654 -0.866341 -0.189296 0.462191 177 173 167
-0.337491 0.790817 -3.32007 -0.56284 0.113864 0.818686 177 173 167
-0.322723 0.781576 -3.3077 -0.619534 -0.0614867 0.782558 180 175 171
-0.305077 0.782223 -3.29965 -0.448616 0.0390348 0.892872 178 174 168
-0.27501 0.764418 -3.28618 -0.375752 0.020104 0.926502 198 198 199
-0.254618 0.764089 -3.2758 -0.393314 -0.0337537 0.918784 190 188 187
-0.236197 0.764352 -3.26832 -0.390511 0.11884 0.912895 185 183 180
-0.216346 0.763644 -3.25602 -0.42437 -0.0572488 0.903677 182 179 173
-0.204505 0.744284 -3.24744 -0.452274 0.195904 0.870097 215 218 221
-0.185382 0.744011 -3.23556 -0.482224 0.0394764 0.875158 207 209 209
-0.16525 0.744524 -3.22699 -0.482145 -0.0747838 0.872894 199 199 198
-0.146687 0.74433 -3.21578 -0.493146 -0.0641303 0.86758 190 190 186
-0.140665 0.729353 -3.21921 -0.49171 -0.56114 0.66584 221 227 230
-0.127447 0.730956 -3.20591 -0.519675 -0.581808 0.625649 211 214 216
-0.117378 0.729317 -3.20021 -0.516953 -0.631261 0.578161 210 213 214
-0.0994099 0.720406 -3.19631 -0.504862 -0.530769 0.680734 222 228 232
-0.103091 0.731634 -3.19165 -0.53445 -0.352687 0.768098 199 201 199
-0.0855914 0.72176 -3.18406 -0.374161 0.179234 0.909878 216 219 221
-0.0576119 0.702362 -3.16784 -0.315772 0.0200955 0.948622 225 233 237
-0.0393188 0.701753 -3.15882 -0.188097 0.110481 0.975917 225 233 237
-0.0376998 0.70752 -3.15824 -0.158103 0.115743 0.980615 222 227 231
-0.0158706 0.698726 -3.14316 -0.0376802 -0.260825 0.964651 204 206 207
0.0206064 0.689332 -3.15275 -0.0700413 -0.158862 0.984813 117 106 99
0.0483973 0.695711 -3.14263 -0.755131 -0.172014 0.632604 186 188 181
0.0695687 0.690036 -3.13921 -0.193009 -0.103456 0.975728 189 192 183
0.0808638 0.675148 -3.14086 -0.0603619 -0.319878 0.945534 188 191 183
0.0863928 0.687947 -3.13317 -0.08441 -0.367618 0.926138 188 191 183
0.102824 0.67832 -3.14322 -0.821926 -0.387172 0.417774 172 172 163
0.110936 0.669271 -3.1217 -0.956669 -0.222809 0.187456 115 105 94
0.125321 0.664903 -3.10768 -0.953714 -0.20833 -0.216858 113 98 86
0.127438 0.664342 -3.06645 -0.968754 0.103803 0.225256 124 111 101
0.13721 0.652554 -3.08008 -0.927737 -0.366008 -0.0730893 114 101 87
0.137948 0.658878 -3.05366 -0.948482 -0.308503 0.0721653 114 98 87
0.142699 0.648233 -3.02788 -0.970827 -0.229096 0.0707857 120 107 98
0.157976 0.634032 -2.98301 -0.789565 -0.60867 0.0781487 113 94 82
0.284167 0.554743 -2.78719 -0.736566 0.465049 0.491121 128 172 119
0.299135 0.544347 -2.76819 -0.258113 0.60148 0.756042 124 186 101
0.310821 0.530071 -2.71665 -0.184783 0.747497 0.638047 131 199 107
0.304119 0.508846 -2.63384 -0.334605 0.71737 0.611081 137 209 113
0.421994 0.507291 -2.67 -0.578585 0.478035 0.66085 134 208 112
0.450427 0.498848 -2.66785 -0.00177979 -0.11072 0.99385 131 204 111
0.521775 0.489797 -2.67529 -0.478185 0.604271 0.637335 97 118 81
0.535826 0.486141 -2.66888 -0.0334559 0.50984 0.859618 69 77 59
0.541242 0.491864 -2.66926 -0.204206 0.463494 0.862249 71 75 62
0.563065 0.483783 -2.65983 -0.352182 0.31476 0.881416 62 67 56
0.587992 0.474577 -2.64597 -0.986986 0.160731 0.00499588 159 180 163
0.589675 0.462771 -2.6204 -0.953941 -0.00678915 0.299916 195 215 212
0.595775 0.465776 -2.5903 -0.975061 -0.153107 0.16067 163 166 160
0.598224 0.453324 -2.5714 -0.987244 0.0363005 0.155022 146 149 138
0.598719 0.448511 -2.54905 -0.991839 0.125092 -0.0246267 168 177 163
0.596789 0.438762 -2.52064 -0.997913 0.0423318 -0.0487559 211 225 223
0.610116 0.436301 -2.53988 -0.743313 0.167897 0.647531 202 218 213
0.613889 0.432009 -2.51813 -0.616323 0.221347 0.755746 217 229 229
0.629115 0.435055 -2.4966 -0.405927 0.126716 0.905078 224 234 234
0.643134 0.42143 -2.49643 -0.334776 0.0982806 0.937158 228 237 237
0.683871 0.425866 -2.5047 -0.499905 0.596633 0.627793 231 238 238
0.706429 0.418762 -2.49803 -0.009828 0.34205 0.93963 233 239 239
0.721736 0.417082 -2.49042 -0.0496854 0.456544 0.888313 232 238 238
0.732114 0.41569 -2.47614 -0.367515 0.315172 0.874986 232 237 237
0.728804 0.403135 -2.48403 -0.0339245 0.409675 0.911601 230 237 236
0.756616 0.402776 -2.46779 -0.315386 0.23342 0.919808 227 234 234
0.756516 0.40245 -2.46648 -0.347322 0.188245 0.918658 227 234 234
0.767139 0.402141 -2.45321 -0.425576 0.224541 0.876622 224 231 231
0.78076 0.401355 -2.43949 -0.481421 -0.114981 0.868915 222 230 230
0.780592 0.401059 -2.43808 -0.507176 -0.157231 0.847379 222 230 230
0.791111 0.384582 -2.43812 -0.502666 -0.319801 0.803152 213 221 223
0.816592 0.385625 -2.43944 -0.480654 -0.427096 0.765872 210 218 220
0.834475 0.385795 -2.42966 -0.168817 -0.316679 0.933389 205 211 212
0.861856 0.387081 -2.43308 -0.0563475 -0.283039 0.957452 189 192 192
-0.445225 0.823269 -3.43172 0.400138 -0.385715 0.831332 30 20 17
-0.388018 0.809451 -3.43577 -0.56494 0.226065 0.79356 172 168 164
-0.360254 0.784723 -3.36996 -0.954267 0.117637 0.274838 172 167 158
-0.355496 0.78412 -3.33409 -0.627742 0.140929 0.765558 176 173 168
-0.35455 0.774315 -3.32383 -0.244832 -0.113693 0.962876 190 188 186
-0.336377 0.769218 -3.31636 -0.506006 -0.115765 0.854726 210 212 215
-0.312828 0.764939 -3.30787 -0.553982 -0.362439 0.749495 212 214 219
-0.313203 0.765732 -3.30804 -0.547348 -0.324197 0.771561 211 213 217
-0.294696 0.764513 -3.29731 -0.42111 -0.161855 0.892451 208 209 212
-0.265621 0.744919 -3.27937 -0.381702 0.0797118 0.920842 217 223 228
-0.244999 0.74455 -3.26856 -0.403278 0.0904995 0.910591 218 224 227
-0.225497 0.744711 -3.26028 -0.418546 -0.0668551 0.905731 218 223 227
-0.193976 0.725942 -3.24527 -0.501795 -0.0643757 0.862588 220 229 233
-0.174429 0.725983 -3.23471 -0.478076 -0.10209 0.872365 220 229 233
-0.153883 0.726915 -3.22711 -0.508074 -0.578694 0.637945 222 230 234
-0.1562 0.725834 -3.22397 -0.499886 -0.213639 0.839328 222 230 234
-0.140256 0.715044 -3.22771 -0.472914 -0.555112 0.684254 222 230 234
-0.126467 0.717881 -3.21841 -0.501489 -0.60802 0.615484 221 231 234
-0.113974 0.718773 -3.20563 -0.528475 -0.542341 0.653132 222 230 233
-0.118377 0.714853 -3.20614 -0.522069 -0.185013 0.832595 221 230 234
-0.101817 0.705473 -3.20299 -0.502175 -0.455639 0.734992 221 231 235
-0.0870476 0.706423 -3.19164 -0.431717 -0.39744 0.809729 222 232 236
-0.076382 0.703078 -3.17748 -0.31269 0.0654851 0.947595 224 233 236
-0.0673543 0.685826 -3.17199 -0.572958 0.25252 0.779713 225 234 237
-0.04863 0.68588 -3.1652 -0.391166 0.05399 0.918735 225 235 238
-0.0473545 0.690497 -3.15947 -0.290198 0.0637221 0.954843 224 234 238
-0.0287444 0.691397 -3.15823 -0.554022 0.164253 0.816138 227 235 237
-0.0163727 0.675776 -3.1472 -0.468723 0.246382 0.848289 204 209 208
0.038054 0.683388 -3.15341 -0.713018 -0.107302 0.692886 176 174 167
0.0576985 0.677415 -3.14835 -0.230231 -0.272312 0.934259 188 189 181
0.057627 0.676201 -3.14772 -0.21195 -0.246058 0.945797 187 189 181
0.0685031 0.660253 -3.15022 -0.030138 -0.338267 0.940568 190 194 185
0.0957712 0.664901 -3.1515 -0.523284 -0.349791 0.777059 187 189 180
0.111314 0.663899 -3.14019 -0.561999 -0.108694 0.819965 131 128 120
0.1222 0.650767 -3.12341 -0.993385 0.0434507 0.106294 123 105 90
0.128556 0.642887 -3.10723 -0.878596 0.0829932 0.470299 113 96 81
0.152203 0.620632 -3.04405 -0.8296 -0.552095 0.0833901 114 96 85
0.147065 0.627682 -3.02475 -0.823079 -0.456536 0.33781 124 109 100
0.156135 0.622889 -3.00817 -0.770961 -0.515835 0.373541 135 121 113
0.273865 0.534143 -2.78448 -0.909079 0.355082 0.217926 104 146 80
0.273941 0.53419 -2.78452 -0.911789 0.351933 0.211622 104 146 80
0.284072 0.535672 -2.76294 -0.854087 0.385737 0.348917 111 165 89
0.270256 0.528051 -2.72681 -0.961479 0.26772 0.0623164 115 170 90
0.295235 0.520054 -2.73398 -0.200842 0.757199 0.62154 124 192 101
0.277166 0.494787 -2.62678 -0.264507 0.668853 0.694746 133 206 109
0.306103 0.491272 -2.62298 -0.0651548 0.620387 0.781585 138 212 114
0.503809 0.473227 -2.6781 -0.377772 0.470078 0.797693 131 198 108
0.541241 0.469557 -2.66687 -0.0127725 0.427222 0.904056 60 66 45
0.528116 0.472372 -2.66729 0.000815034 0.481931 0.876209 86 116 66
0.558805 0.468904 -2.66314 0.0935594 0.148433 0.984487 64 70 55
0.584391 0.462697 -2.64529 -0.99241 0.12283 -0.00597289 148 171 153
0.582756 0.443988 -2.62192 -0.88113 0.14841 0.448981 191 214 206
0.590898 0.454991 -2.60838 -0.937293 -0.0130312 0.3483 201 221 219
0.593829 0.441916 -2.58905 -0.93782 0.110864 0.328943 205 219 220
0.597007 0.429037 -2.56992 -0.987938 0.049916 0.146583 183 193 189
0.598138 0.429697 -2.55232 -0.973862 0.227077 0.00527537 171 181 171
0.602776 0.413292 -2.51089 -0.997707 0.0376426 0.0562519 219 230 228
0.617034 0.411704 -2.5005 -0.750652 0.194543 0.631407 224 235 235
0.641537 0.41127 -2.49631 -0.36889 0.0600903 0.927529 229 237 236
0.650647 0.411607 -2.50153 -0.181769 0.314309 0.931756 230 237 236
0.672881 0.411782 -2.50121 -0.222637 0.308452 0.924819 232 239 239
0.672881 0.411782 -2.50121 -0.222637 0.308452 0.924819 232 239 239
0.697067 0.404097 -2.49169 -0.0156249 0.37033 0.928769 233 238 239
0.676044 0.397656 -2.49223 -0.0617278 0.29409 0.953782 232 239 239
0.71397 0.404049 -2.48985 -0.0348484 0.423542 0.905206 232 239 238
0.747602 0.38896 -2.46764 -0.352384 0.114235 0.928858 229 235 235
0.747713 0.388734 -2.46659 -0.330226 0.0737685 0.941015 229 235 235
0.759438 0.388327 -2.45941 -0.273723 0.0270401 0.961428 225 232 232
0.767912 0.375223 -2.45864 -0.506425 -0.12265 0.853517 217 226 228
0.777273 0.385558 -2.45148 -0.391866 -0.111769 0.913208 219 229 229
0.914462 0.350853 -2.45139 -0.145852 -0.393016 0.907891 193 194 190
0.937819 0.354934 -2.44715 -0.114275 -0.0979285 0.988611 200 210 207
1.0015 0.348676 -2.4452 -0.311544 -0.513336 0.799641 128 129 136
-0.474327 0.815481 -3.46053 -0.531561 -0.556849 0.638249 16 13 13
-0.4343 0.810163 -3.45332 0.397896 -0.377984 0.835946 43 28 27
-0.410406 0.806969 -3.45145 -0.588082 0.0473073 0.807417 152 143 142
-0.398727 0.792596 -3.43455 -0.620975 0.233364 0.748285 172 168 164
-0.382197 0.784207 -3.41545 -0.377527 -0.310618 0.872347 176 172 165
-0.369815 0.786263 -3.40512 -0.065816 -0.137266 0.988345 171 168 160
-0.353678 0.771023 -3.34653 -0.822045 -0.289552 0.490307 175 173 169
-0.322134 0.747514 -3.31836 -0.425784 -0.394323 0.814382 211 219 224
-0.304321 0.745642 -3.29955 -0.476026 0.0516428 0.877913 212 220 225
-0.284828 0.746106 -3.29296 -0.40838 -0.132533 0.90314 214 221 226
-0.251721 0.724234 -3.26631 -0.424041 0.405098 0.809991 214 220 225
-0.235245 0.727281 -3.27173 -0.458634 -0.181901 0.869809 220 227 231
-0.253292 0.719217 -3.24216 -0.614105 0.43148 0.660833 216 223 228
-0.216633 0.724029 -3.24778 -0.448006 0.25389 0.857222 219 227 231
-0.179451 0.704904 -3.22587 -0.619092 0.441866 0.649215 217 228 233
-0.16338 0.708571 -3.23433 -0.476445 -0.207104 0.854464 220 230 235
-0.145385 0.707566 -3.21466 -0.499575 0.236699 0.833306 221 231 235
-0.126112 0.70234 -3.22307 -0.568055 -0.580784 0.583098 222 231 234
-0.0863657 0.687604 -3.18705 -0.670067 0.231758 0.705194 226 235 238
-0.0383514 0.673892 -3.1571 -0.0925757 0.12452 0.987889 224 233 237
-0.0457389 0.661171 -3.15239 -0.298877 0.1499 0.942445 227 235 238
-0.032084 0.655402 -3.13986 -0.341006 0.326623 0.881494 220 225 227
-0.0122707 0.655485 -3.14364 -0.326834 0.0335329 0.944487 165 165 161
0.0119648 0.656484 -3.14449 0.0207115 -0.24934 0.968194 175 172 165
0.00579023 0.652141 -3.14325 -0.262989 0.205184 0.942728 174 170 163
0.0667812 0.65854 -3.14757 0.0957183 -0.352887 0.930757 189 192 183
0.0832548 0.642606 -3.16063 -0.173823 -0.273442 0.946052 188 191 181
0.105065 0.648403 -3.1483 -0.867418 0.0213635 0.497121 161 161 153
0.124083 0.632791 -3.12631 -0.72574 0.393908 0.564037 128 113 102
0.130218 0.627422 -3.06322 -0.968574 0.165751 0.18545 115 102 89
0.148013 0.613564 -3.07732 -0.673758 0.46834 0.571583 114 102 88
0.193939 0.602032 -3.02074 0.0873149 -0.62535 0.775444 117 108 102
0.280607 0.605884 -3.06776 0.169185 -0.506931 0.84522 110 106 92
0.269209 0.52459 -2.80926 -0.934736 0.320294 0.153885 74 103 51
0.272682 0.530614 -2.79071 -0.873623 0.434382 0.219306 102 144 79
0.263821 0.508732 -2.75561 -0.826628 0.503163 0.252017 101 147 77
0.257173 0.481555 -2.628 -0.619895 0.55858 0.551107 128 199 107
0.290248 0.463578 -2.60084 0.0864213 -0.469006 0.878956 139 214 116
0.273834 0.473486 -2.6012 -0.674509 0.510242 0.533564 137 211 115
0.510371 0.455061 -2.66422 0.107033 0.118587 0.987158 122 180 98
0.522267 0.458037 -2.66605 -0.182464 0.161964 0.969781 107 149 83
0.546503 0.453658 -2.65729 -0.280458 0.0830438 0.956267 55 63 43
0.555233 0.443545 -2.65643 0.0985373 0.114941 0.988473 75 91 65
0.580057 0.439794 -2.64492 -0.932402 0.104522 0.34598 149 172 153
0.587745 0.432722 -2.608 -0.934646 0.169587 0.312533 200 221 214
0.590412 0.419486 -2.58851 -0.93631 0.247828 0.248808 208 224 222
0.599139 0.413448 -2.53557 -0.975378 0.115567 0.187838 199 214 209
0.611264 0.390017 -2.50343 -0.678436 0.0598022 0.732222 221 231 230
0.615368 0.402818 -2.49712 -0.65311 0.0420381 0.756095 226 236 236
0.628793 0.399358 -2.50069 -0.438921 0.0150649 0.898399 226 236 235
0.633384 0.40238 -2.50083 -0.203562 0.166777 0.964753 228 237 236
0.638281 0.393613 -2.49494 -0.623407 0.0409344 0.780825 228 236 236
0.653225 0.38069 -2.48874 0.00783578 0.0363012 0.99931 226 234 233
0.656225 0.397572 -2.49409 -0.10429 0.291446 0.950885 230 237 236
0.670027 0.381171 -2.48838 -0.183317 -0.122832 0.97535 226 234 233
0.683501 0.38092 -2.48372 0.0115903 0.267884 0.963381 230 236 236
0.725399 0.375472 -2.47684 -0.0752544 0.0207271 0.996949 227 235 235
0.748388 0.362685 -2.47223 -0.385334 -0.301591 0.872101 215 223 225
0.743569 0.376512 -2.4771 -0.0346724 0.195345 0.980122 223 231 231
0.763165 0.359132 -2.46703 -0.27555 -0.561182 0.780479 214 222 223
0.763447 0.362696 -2.4663 -0.333469 -0.438847 0.834393 213 221 222
0.756287 0.375875 -2.46715 -0.302606 -0.153437 0.940684 221 229 231
0.7554 0.37594 -2.46738 -0.29658 -0.183611 0.937191 221 230 231
0.927578 0.333083 -2.45304 -0.164047 -0.343193 0.924828 198 205 202
0.971506 0.33565 -2.44961 -0.122609 -0.57929 0.805847 180 185 190
1.00386 0.316931 -2.44958 -0.452578 -0.130934 0.88206 115 115 120
1.00369 0.331052 -2.44075 -0.509797 -0.297996 0.807035 113 113 117
-0.47946 0.80205 -3.4759 -0.57373 -0.385288 0.722763 27 17 14
-0.42726 0.796808 -3.46294 -0.592011 -0.114258 0.797789 122 109 110
-0.413343 0.783185 -3.45025 -0.668326 0.0521789 0.742036 166 160 157
-0.402547 0.771987 -3.44185 -0.610197 -0.305488 0.730984 177 175 172
-0.357317 0.768621 -3.40833 -0.902728 -0.120216 0.413075 172 170 163
-0.357176 0.76947 -3.41082 -0.908535 -0.0891551 0.408185 172 170 163
-0.353164 0.747294 -3.37622 -0.956186 -0.0010809 0.292758 154 153 148
-0.346249 0.753372 -3.34791 -0.899078 -0.381031 0.21558 196 198 199
-0.327307 0.732835 -3.32875 -0.037844 -0.29615 0.954391 212 219 225
-0.313305 0.727338 -3.30957 -0.445052 -0.216827 0.868858 211 220 225
-0.294212 0.727479 -3.29612 -0.402588 0.077243 0.912117 213 221 226
-0.295216 0.722842 -3.31153 -0.555463 0.295723 0.77718 218 225 230
-0.295216 0.722842 -3.31153 -0.555463 0.295723 0.77718 218 225 230
-0.273655 0.728075 -3.2926 -0.513401 0.534683 0.671218 215 223 227
-0.104018 0.670666 -3.20932 -0.0486749 -0.0193976 0.998626 217 228 233
-0.078352 0.669329 -3.20234 -0.072487 0.456543 0.886744 220 230 234
-0.0486855 0.657891 -3.16204 -0.324855 0.0587866 0.943935 227 235 238
-0.0452518 0.656197 -3.16668 -0.581516 0.354405 0.732282 230 238 240
-0.0285139 0.656 -3.15032 -0.152699 0.0302596 0.987809 226 233 234
-0.018095 0.639205 -3.14933 -0.538821 0.0908391 0.837509 192 194 191
0.103196 0.626132 -3.14493 -0.724675 0.391773 0.566887 153 166 162
0.127842 0.611918 -3.10051 -0.62903 0.477695 0.613293 133 118 107
0.145029 0.593336 -3.05569 -0.933859 0.248449 0.257256 122 109 98
0.320533 0.572123 -3.04932 -0.0767847 7.50721e-05 0.997048 125 149 120
0.331772 0.564696 -3.04255 0.00641626 -0.146084 0.989251 122 147 118
0.231896 0.494255 -2.72215 -0.865426 0.448385 0.223581 100 146 76
0.224367 0.488865 -2.72168 -0.915708 0.358268 0.181999 96 139 72
0.245481 0.48685 -2.66919 -0.780576 0.512799 0.357405 116 176 93
0.242557 0.467243 -2.63833 -0.762597 0.487648 0.425023 120 184 99
0.2509 0.463419 -2.60959 -0.711038 0.465749 0.526785 131 198 108
0.276621 0.448792 -2.59602 -0.406517 0.36324 0.838332 140 211 116
0.264961 0.46228 -2.59505 -0.723579 0.453489 0.520366 139 209 115
0.284284 0.44586 -2.58183 0.0841986 -0.380585 0.920905 141 212 114
0.547578 0.429307 -2.6569 -0.153583 -0.0954456 0.983515 57 69 45
0.522107 0.429122 -2.65668 -0.0202458 0.0239657 0.999508 98 138 76
0.571551 0.429599 -2.66219 -0.0110502 0.00309322 0.999934 101 118 103
0.577792 0.418004 -2.64505 -0.930465 0.0825037 0.356971 149 172 152
0.587491 0.408091 -2.58866 -0.933378 0.239557 0.267243 203 219 214
0.594039 0.402766 -2.55414 -0.948282 0.248078 0.198035 189 204 200
0.596435 0.391501 -2.5355 -0.958164 0.115248 0.261992 200 215 210
0.600884 0.380161 -2.51794 -0.848805 0.0476448 0.526554 215 228 226
0.60376 0.392953 -2.51199 -0.889051 0.0835257 0.450124 219 230 229
0.621116 0.370436 -2.50364 -0.0443995 0.320676 0.946148 220 231 231
0.6781 0.368194 -2.48873 -0.239192 -0.145373 0.960028 227 233 233
0.661805 0.367832 -2.49021 -0.186918 -0.139021 0.972489 226 233 233
0.700932 0.355106 -2.48608 -0.20542 -0.122151 0.971021 223 232 232
0.692281 0.367994 -2.48486 -0.174005 -0.069807 0.982267 227 235 234
0.721217 0.363123 -2.48526 -0.143639 0.00502671 0.989617 223 232 232
0.716334 0.356601 -2.4796 -0.161402 -0.269587 0.949353 223 231 232
0.712138 0.354092 -2.47513 -0.247004 -0.484577 0.839151 222 230 231
0.708286 0.367875 -2.47913 -0.177261 -0.188062 0.966029 225 233 232
0.750789 0.357546 -2.47606 -0.304033 -0.433466 0.848334 214 222 224
0.751101 0.355916 -2.47658 -0.291053 -0.487003 0.823478 214 222 224
0.734896 0.357389 -2.48053 -0.241246 -0.315457 0.917762 216 225 226
0.733855 0.362632 -2.47822 -0.255032 -0.243688 0.935722 220 229 230
0.733359 0.355434 -2.47908 -0.256259 -0.385957 0.88621 214 224 224
0.764193 0.348704 -2.47708 -0.175454 -0.559239 0.810227 206 213 215
0.782402 0.346742 -2.47095 -0.172838 -0.608849 0.774229 179 180 179
0.821821 0.339786 -2.46929 -0.181807 -0.578223 0.795364 150 133 126
0.905072 0.332666 -2.45621 -0.276932 -0.0816093 0.957418 202 208 206
0.917491 0.314746 -2.45701 -0.0254522 0.255281 0.966532 198 205 203
0.973393 0.316805 -2.46389 -0.188223 -0.28033 0.941269 197 203 205
1.00364 0.302578 -2.45788 -0.412298 -0.113173 0.903992 118 118 126
0.99652 0.301762 -2.45538 -0.287554 -0.0806043 0.954367 119 119 127
0.948284 0.300394 -2.38436 -0.274045 -0.780756 0.561532 73 66 65
-0.491185 0.784711 -3.47951 0.317813 -0.170815 0.93264 22 15 12
-0.466754 0.778609 -3.45736 -0.0969792 -0.203035 0.974357 44 26 23
-0.445293 0.769969 -3.45403 0.249418 -0.095684 0.963657 98 86 87
-0.421313 0.773576 -3.44713 -0.610566 -0.113443 0.783798 164 158 156
-0.351425 0.726526 -3.35061 -0.841669 0.32778 0.429132 167 164 166
-0.348789 0.731693 -3.3284 -0.495172 -0.0956306 0.863516 212 216 220
-0.321274 0.709901 -3.31396 -0.294195 -0.0412774 0.954854 208 216 222
-0.306154 0.707239 -3.29504 -0.30376 0.144558 0.941718 214 221 226
-0.286592 0.706528 -3.28285 0.137989 0.190459 0.971949 212 219 224
-0.0914157 0.650864 -3.19573 0.135996 0.365585 0.920789 220 229 234
-0.0485226 0.642758 -3.17616 -0.507831 0.0873598 0.857016 223 232 237
-0.0386253 0.641385 -3.15949 -0.409059 0.0858343 0.908462 228 236 239
-0.0327708 0.639955 -3.15799 -0.501347 0.110339 0.858182 229 235 238
-0.0194372 0.625879 -3.14936 -0.517605 0.0808242 0.851794 186 189 183
-0.00715267 0.623309 -3.13664 -0.554554 0.0986143 0.826284 173 173 161
0.0193727 0.623158 -3.15604 0.19678 -0.639217 0.743424 173 175 157
0.0883231 0.610353 -3.17075 -0.269619 0.235496 0.933728 192 215 177
0.0744849 0.62574 -3.16549 -0.305056 -0.00910892 0.952291 178 183 168
0.113283 0.614613 -3.15703 -0.64104 0.490728 0.59013 158 171 148
0.120257 0.611931 -3.15194 -0.616405 0.485763 0.619742 161 173 148
0.108134 0.587481 -3.09595 -0.689734 0.445176 0.571039 184 200 176
0.131242 0.590592 -3.07992 -0.73656 0.386165 0.555298 150 136 128
0.145005 0.576777 -3.0642 -0.773025 0.332874 0.540025 158 151 147
0.316143 0.55677 -3.05425 -0.150735 0.0373046 0.98787 120 143 117
0.225528 0.480841 -2.74078 -0.953064 0.287366 0.0953369 80 113 56
0.223581 0.478493 -2.69149 -0.895494 0.390076 0.214316 100 148 75
0.223823 0.480833 -2.71077 -0.953344 0.287417 0.0923377 95 137 68
0.222725 0.474103 -2.68176 -0.851706 0.40653 0.330651 100 150 76
0.223743 0.458243 -2.65753 -0.863081 0.358744 0.355519 105 154 80
0.247064 0.450619 -2.62208 -0.720227 0.45118 0.526981 116 171 90
0.264795 0.450734 -2.61482 -0.385307 0.355605 0.851519 128 194 104
0.260175 0.433131 -2.59558 -0.713514 -0.3071 0.629752 103 146 74
0.276466 0.433187 -2.58767 -0.471432 -0.373444 0.798931 125 184 97
0.305792 0.427822 -2.57797 0.0427684 -0.0471861 0.99797 130 203 106
0.331247 0.4246 -2.57152 -0.651016 0.114444 0.750387 132 208 111
0.325306 0.420959 -2.57103 -0.0270946 -0.596545 0.802122 131 206 110
0.540806 0.409696 -2.66141 -0.0957119 -0.0711715 0.992862 45 56 29
0.567339 0.407801 -2.66033 -0.0293645 0.0299968 0.999119 91 109 89
0.553169 0.409405 -2.66242 -0.0699726 -0.0564753 0.995949 55 67 44
0.578269 0.396659 -2.64677 -0.996106 0.0765864 0.0436682 135 157 130
0.57888 0.406579 -2.6244 -0.992557 0.0749315 0.0959953 169 190 175
0.578855 0.39475 -2.60472 -0.983787 0.0972103 0.15071 172 189 175
0.581759 0.384338 -2.58671 -0.96793 0.122516 0.219322 186 199 188
0.585775 0.375446 -2.57109 -0.975766 0.161009 0.148177 185 197 189
0.590402 0.380248 -2.55376 -0.974104 0.0843376 0.209783 184 196 187
0.593764 0.369963 -2.53544 -0.936867 0.0108419 0.349518 197 210 204
0.611196 0.369735 -2.50504 -0.797398 -0.157771 0.582464 218 229 228
0.638831 0.354587 -2.49506 -0.0519568 -0.121812 0.991192 222 232 231
0.677249 0.356547 -2.50108 0.0450447 -0.0229545 0.998721 222 232 232
0.65353 0.354522 -2.49178 -0.184369 -0.204526 0.961341 221 230 230
0.687513 0.355442 -2.49132 0.0331427 0.141986 0.989314 223 232 232
0.700109 0.343393 -2.4981 -0.0263434 -0.0794968 0.996487 213 223 223
0.731292 0.343664 -2.49199 -0.294259 -0.399836 0.868068 204 212 213
0.780872 0.333854 -2.48443 -0.183449 -0.376237 0.90818 136 121 115
0.800396 0.332682 -2.479 -0.230156 -0.624484 0.746356 142 125 117
0.821284 0.321881 -2.48371 -0.157708 -0.614573 0.772935 199 205 197
0.848077 0.314333 -2.47518 -0.161244 -0.345835 0.924337 204 214 209
0.871029 0.3148 -2.47175 -0.188786 -0.285034 0.939742 205 215 210
0.87576 0.305268 -2.45852 -0.236774 0.159814 0.958331 204 213 208
0.887159 0.312895 -2.45027 -0.0495532 0.403688 0.913554 203 211 207
0.954373 0.298046 -2.46643 -0.406424 0.14791 0.901633 198 205 205
0.976206 0.291432 -2.46166 -0.568862 -0.016976 0.822258 176 180 187
0.9659 0.296328 -2.45925 -0.323825 0.0528388 0.944641 184 190 195
1.01247 0.276021 -2.44303 -0.207675 -0.697164 0.686173 43 32 30
-0.506643 0.772255 -3.50711 0.380737 -0.263911 0.886222 24 15 13
-0.462349 0.763924 -3.48731 -0.598051 -0.350772 0.720621 63 47 46
-0.432577 0.761531 -3.45934 -0.615394 -0.252965 0.746525 162 158 158
-0.425847 0.7438 -3.45755 -0.609742 -0.309913 0.729499 170 168 165
-0.418159 0.753302 -3.44482 -0.619559 -0.188614 0.761952 175 171 168
-0.414626 0.752173 -3.44919 -0.613174 -0.302752 0.729629 175 173 170
-0.34749 0.70643 -3.32453 -0.721236 0.314603 0.617125 217 223 229
-0.310005 0.694392 -3.32548 0.224188 0.0212656 0.974314 210 217 223
-0.263721 0.672195 -3.24525 -0.173872 0.241305 0.954746 218 226 231
-0.131475 0.62116 -3.15364 -0.613195 0.477897 0.628972 224 232 235
-0.0665789 0.634691 -3.18628 -0.339587 0.26802 0.90158 223 233 236
-0.0515841 0.625442 -3.17156 -0.57837 0.0536595 0.814008 224 234 236
-0.0367 0.61772 -3.15524 -0.0695464 0.0964072 0.992909 226 234 234
-0.0248797 0.615023 -3.14708 -0.183172 0.0474963 0.981933 197 205 199
-0.00645237 0.611806 -3.13581 -0.470401 0.00279035 0.882448 179 186 164
-0.00325876 0.590087 -3.11412 -0.0699508 0.668722 0.740215 215 233 206
0.0828217 0.580516 -3.10475 -0.592578 0.464655 0.657987 217 235 213
0.372213 0.520672 -3.085 -0.949619 -0.310055 0.0457089 33 29 24
0.372445 0.521253 -3.06295 -0.948781 -0.155296 -0.275133 31 29 21
0.25081 0.478344 -2.81659 -0.941475 -0.146045 -0.303802 51 68 31
0.229724 0.479662 -2.79413 -0.975346 0.220452 0.0100571 58 78 36
0.221441 0.48154 -2.7632 -0.935565 0.311339 0.166691 70 96 47
0.21638 0.467733 -2.71858 -0.914667 0.36117 0.181498 80 115 56
0.21308 0.449869 -2.68277 -0.889135 0.333176 0.31374 86 119 59
0.217924 0.447742 -2.6811 -0.967318 -0.0988059 0.233525 79 108 52
0.228654 0.445366 -2.63783 -0.871446 0.169616 0.460232 95 135 68
0.255435 0.42148 -2.60762 -0.65572 -0.655739 0.374215 75 46 19
0.268164 0.417289 -2.5965 -0.572817 -0.636858 0.516036 78 63 27
0.268678 0.419014 -2.59449 -0.556035 -0.638916 0.531611 80 80 35
0.304953 0.418581 -2.58985 0.115346 0.145311 0.982639 117 176 91
0.285529 0.419085 -2.58704 -0.377863 -0.502034 0.777934 105 146 73
0.309431 0.407087 -2.57295 -0.187327 -0.716485 0.671981 116 164 86
0.294154 0.407494 -2.57441 -0.298898 -0.850315 0.433157 105 135 67
0.316854 0.418256 -2.57252 -0.103127 -0.612709 0.783551 129 198 106
0.311861 0.416714 -2.58276 -0.0554511 -0.316425 0.946996 119 179 93
0.565138 0.397691 -2.66435 -0.0300856 -0.0178114 0.999389 75 92 70
0.563512 0.396414 -2.66422 -0.0209012 -0.0227778 0.999522 70 87 64
0.569264 0.389237 -2.65531 -0.100608 0.0303413 0.994463 103 125 101
0.576591 0.384167 -2.62398 -0.999132 -0.0141578 -0.0391755 160 179 160
0.578398 0.374094 -2.60585 -0.99886 0.0323865 -0.0350805 188 206 199
0.588455 0.359882 -2.55259 -0.959286 0.0422287 0.27926 194 204 201
0.592586 0.349631 -2.53481 -0.868107 0.0438715 0.494434 201 209 206
0.599487 0.359726 -2.51874 -0.899397 -0.183073 0.396949 210 222 218
0.608599 0.355545 -2.51142 -0.83812 0.000409409 0.545485 217 228 226
0.616612 0.342082 -2.50734 -0.349406 0.263718 0.899093 215 225 224
0.636122 0.342564 -2.50701 -0.177319 0.409802 0.894774 217 227 226
0.642261 0.340631 -2.48966 -0.312084 0.0723316 0.947297 213 224 223
0.72273 0.330374 -2.49597 -0.0807367 -0.575016 0.814148 183 187 186
0.775369 0.31853 -2.49577 -0.106749 -0.436853 0.893177 171 162 154
0.795955 0.317972 -2.49089 -0.235892 -0.586938 0.774506 198 198 193
0.808177 0.301968 -2.49018 -0.479169 -0.298961 0.825239 210 218 213
0.818555 0.298067 -2.47651 -0.516608 0.0555319 0.854419 205 212 208
0.865261 0.286626 -2.46553 -0.173234 -0.496962 0.850305 208 214 209
0.891118 0.287217 -2.45961 -0.222287 0.173521 0.959416 205 213 210
0.920353 0.288471 -2.46368 -0.263816 0.171903 0.949131 201 210 208
0.942312 0.279967 -2.46756 -0.195468 -0.308499 0.930925 196 205 205
0.949689 0.280177 -2.45219 -0.39642 0.201634 0.895653 179 185 191
0.9597 0.279315 -2.47034 -0.545843 -0.0396347 0.836949 195 203 206
0.992425 0.283491 -2.46767 -0.221368 -0.390656 0.893523 167 170 178
0.994231 0.276342 -2.45406 -0.4609 -0.357156 0.81241 75 68 77
0.990837 0.276756 -2.4652 -0.181932 -0.306474 0.934331 155 156 165
0.994479 0.275509 -2.45677 -0.424625 -0.430494 0.796473 82 75 87
-0.465969 0.749084 -3.51913 -0.771876 -0.284786 0.568423 103 84 82
-0.450262 0.74196 -3.48499 -0.584149 -0.413374 0.698492 151 143 141
-0.413547 0.732089 -3.4385 0.0950113 -0.46739 0.878931 179 177 172
-0.363328 0.70036 -3.34974 -0.829639 0.382186 0.406979 121 114 115
-0.2659 0.646339 -3.20767 -0.295539 0.208041 0.932403 218 227 231
-0.248974 0.645001 -3.19131 -0.0617128 0.124571 0.99029 219 228 232
-0.221811 0.630029 -3.20225 -0.428665 0.423475 0.798069 219 228 232
-0.201691 0.626674 -3.1723 -0.745447 0.260069 0.613737 226 234 238
-0.153715 0.618256 -3.16279 -0.535295 0.438684 0.721814 224 232 236
-0.145862 0.600242 -3.13689 -0.426222 -0.157729 0.890762 226 235 237
-0.111864 0.602974 -3.13196 -0.586085 0.280159 0.760273 227 236 238
-0.128111 0.600001 -3.12706 -0.477541 -0.244776 0.843824 227 235 238
-0.0868265 0.606649 -3.14117 -0.531973 0.565511 0.63024 227 235 237
-0.0871036 0.60692 -3.14087 -0.539233 0.559334 0.629582 227 235 237
-0.0732075 0.586789 -3.12649 -0.153465 0.559471 0.814519 228 235 238
-0.0524308 0.598618 -3.1273 -0.0308053 0.627647 0.777888 226 234 234
-0.0264445 0.593435 -3.12452 -0.131872 0.682491 0.718899 214 228 212
0.0253841 0.574509 -3.10043 -0.193571 0.747955 0.634896 229 240 237
0.112626 0.540539 -3.01611 -0.795228 0.416377 0.44073 124 126 123
0.116226 0.543262 -3.0212 -0.751284 0.505135 0.424747 132 134 133
0.116249 0.543273 -3.02125 -0.751471 0.505121 0.424434 132 134 133
0.356902 0.525167 -3.0986 -0.750406 -0.168541 0.639128 59 60 48
0.373632 0.520899 -3.08895 -0.687866 -0.517402 0.509054 33 29 24
0.229505 0.463219 -2.76928 -0.950565 -0.110826 -0.290075 56 75 35
0.21988 0.439697 -2.70661 -0.957613 -0.255038 0.133916 63 71 31
0.224912 0.430883 -2.69413 -0.978682 0.0841146 0.187367 59 36 14
0.222453 0.437911 -2.66321 -0.944975 -0.0233194 0.326311 65 72 31
0.232756 0.423476 -2.65883 -0.934414 0.0865281 0.345519 66 15 5
0.228677 0.431552 -2.65084 -0.78798 -0.568161 0.237234 65 50 20
0.237734 0.427917 -2.63678 -0.728448 -0.61418 0.303557 69 41 16
0.246887 0.423723 -2.623 -0.780325 -0.499561 0.376207 71 34 13
0.253695 0.416836 -2.64092 -0.597102 -0.781734 0.179893 73 7 3
0.255708 0.411905 -2.64239 -0.506958 -0.846695 0.161558 76 6 2
0.255708 0.411905 -2.64239 -0.506958 -0.846695 0.161558 76 6 2
0.266693 0.411725 -2.62889 -0.564474 -0.79884 0.207904 75 6 3
0.25974 0.411369 -2.6234 -0.643384 -0.655658 0.395184 77 8 3
0.271849 0.406456 -2.63128 -0.408609 -0.876604 0.254174 79 5 2
0.271849 0.406456 -2.63128 -0.408609 -0.876604 0.254174 79 5 2
0.271563 0.406746 -2.60909 -0.514606 -0.710066 0.480611 77 10 4
0.272844 0.405345 -2.61262 -0.488094 -0.769491 0.411883 79 8 3
0.292628 0.396981 -2.60685 -0.381231 -0.852771 0.356994 83 8 2
0.284342 0.407106 -2.596 -0.464034 -0.736447 0.492258 79 37 15
0.287825 0.396382 -2.59264 0.13104 -0.164276 0.977672 92 11 3
0.30249 0.394992 -2.58377 0.0930995 -0.112549 0.989275 96 33 12
0.571142 0.381858 -2.66243 -0.94127 0.220724 0.255521 66 82 54
0.576921 0.374529 -2.64702 -0.997269 0.0707801 -0.02107 141 164 140
0.577419 0.361499 -2.62432 -0.998989 0.0306316 -0.032906 156 175 159
0.578439 0.362249 -2.58633 -0.957749 0.173975 0.229019 195 212 209
0.581267 0.353162 -2.57126 -0.95657 0.212012 0.200059 205 223 220
0.585876 0.34204 -2.55232 -0.922585 0.0586962 0.381302 215 231 230
0.601077 0.339106 -2.51996 -0.845012 0.0369519 0.53347 213 223 221
0.642332 0.328948 -2.5024 -0.492773 0.549597 0.674624 196 204 203
0.647404 0.315931 -2.49575 -0.100234 0.640274 0.761579 120 117 114
0.779384 0.298991 -2.50965 -0.171041 -0.542272 0.82261 207 215 209
0.790759 0.296725 -2.50178 -0.31845 -0.404884 0.857122 209 218 213
0.797972 0.292085 -2.49164 -0.495783 -0.0241451 0.868111 209 218 213
0.835393 0.288637 -2.46947 -0.172061 0.114867 0.978366 202 212 205
0.911025 0.269623 -2.46598 -0.0227881 0.303085 0.952691 198 209 208
0.942139 0.262956 -2.46364 -0.320851 0.302072 0.897667 198 208 210
0.988397 0.258542 -2.46785 -0.157345 -0.618469 0.769895 162 163 169
1.00323 0.256426 -2.45755 -0.407665 -0.453162 0.792751 58 45 54
-0.466221 0.728832 -3.50481 -0.6129 -0.161039 0.773576 120 107 106
-0.438235 0.72314 -3.47224 -0.525557 -0.0116215 0.850679 167 164 160
-0.358996 0.680422 -3.32425 -0.802247 0.395082 0.44756 211 219 224
-0.361939 0.652627 -3.2652 -0.465258 0.297431 0.833708 220 228 233
-0.304106 0.648284 -3.24011 -0.605685 0.443283 0.660792 216 224 229
-0.273537 0.627194 -3.20819 -0.484589 -0.0341182 0.874076 220 229 233
-0.255874 0.628283 -3.20493 -0.445996 0.213201 0.869271 221 230 234
-0.236982 0.628468 -3.19615 -0.486305 0.263561 0.833093 223 231 235
-0.227026 0.608371 -3.18214 -0.483237 -0.136447 0.864792 225 234 237
-0.208871 0.608417 -3.17249 -0.496572 -0.108831 0.861146 225 234 237
-0.191919 0.609025 -3.16602 -0.49663 -0.021762 0.86769 225 234 237
-0.17174 0.609612 -3.1585 -0.502297 0.147316 0.852054 225 233 237
-0.138064 0.583562 -3.13743 -0.4408 -0.0876023 0.89332 229 227 232
-0.137145 0.58321 -3.13694 -0.436507 -0.0945484 0.894719 229 227 232
-0.119935 0.583553 -3.12843 -0.4897 -0.0489285 0.870517 227 236 239
-0.119814 0.583519 -3.1285 -0.489876 -0.0406249 0.870845 227 236 239
-0.119006 0.583109 -3.12752 -0.487952 -0.0829068 0.868924 227 236 239
-0.102452 0.585898 -3.13227 -0.411741 0.425157 0.806047 224 234 237
-0.102683 0.585993 -3.13262 -0.414727 0.425669 0.804243 224 234 237
-0.102107 0.585566 -3.13202 -0.407434 0.424362 0.80865 224 234 237
-0.0513767 0.577967 -3.11568 -0.244461 0.592187 0.767824 229 237 238
-0.0582014 0.56131 -3.10053 -0.264684 0.218572 0.939239 220 191 202
-0.0247547 0.572519 -3.11234 -0.210901 0.691007 0.691397 227 231 232
-0.0297319 0.550749 -3.07715 -0.457127 -0.122621 0.880908 215 183 192
0.0230561 0.550471 -3.07463 -0.396714 0.599095 0.695488 186 226 236
0.0956019 0.534991 -3.03802 -0.805201 0.410637 0.427818 199 194 202
0.10039 0.515872 -3.01675 -0.751409 0.382049 0.53798 148 211 226
0.10842 0.514686 -2.99737 -0.887595 0.35476 0.293802 105 113 113
0.34683 0.496605 -3.09554 -0.973633 0.187848 0.129426 31 29 23
0.349961 0.484905 -3.07486 -0.96217 -0.112576 -0.248103 26 25 20
0.221607 0.447175 -2.77923 -0.959712 -0.205858 -0.191247 53 68 29
0.221693 0.436656 -2.75771 -0.605185 -0.794984 0.0418408 47 51 20
0.229302 0.431479 -2.74081 -0.690808 -0.721809 0.0421443 53 33 13
0.221102 0.431871 -2.71714 -0.959298 0.220776 0.176085 57 43 19
0.26016 0.419627 -2.74282 -0.48548 -0.858614 0.164597 66 7 2
0.263924 0.412592 -2.66047 -0.533991 -0.839204 0.102911 74 6 1
0.324853 0.403327 -2.69444 -0.465706 -0.859336 0.21133 89 1 0
0.346189 0.395699 -2.69754 -0.513938 -0.842927 0.159189 90 2 0
0.282544 0.387039 -2.6262 -0.393116 -0.845211 0.362049 88 4 1
0.303091 0.383391 -2.61243 -0.13743 -0.781747 0.608264 93 5 1
0.303195 0.383394 -2.61251 -0.13909 -0.783137 0.606094 93 5 1
0.556891 0.367214 -2.67749 -0.276801 -0.367019 0.888076 37 41 24
0.576129 0.352159 -2.64759 -0.998564 0.0508136 0.0169633 129 149 124
0.575337 0.341001 -2.62788 -0.996454 0.0808278 -0.023358 143 159 139
0.575651 0.334693 -2.61131 -0.975408 0.220278 0.00756565 138 152 133
0.57589 0.343873 -2.59028 -0.975148 0.19097 0.112324 177 197 186
0.578321 0.332233 -2.57119 -0.95095 0.212832 0.224494 194 212 207
0.5819 0.320053 -2.55294 -0.937221 0.208493 0.279549 204 218 215
0.589937 0.328956 -2.53235 -0.892273 0.179162 0.414426 220 233 233
0.596724 0.316717 -2.51652 -0.798429 0.347738 0.491518 225 235 235
0.625784 0.314698 -2.50232 -0.642186 0.4838 0.594588 207 216 219
0.775039 0.278025 -2.50424 -0.290003 0.0857876 0.953173 208 218 214
0.787178 0.276278 -2.49688 -0.0919629 0.0179161 0.995601 207 217 212
0.808284 0.279269 -2.48354 -0.171018 0.126039 0.977173 209 220 216
0.818029 0.259958 -2.47813 -0.0295804 -0.110211 0.993468 208 220 216
0.900436 0.247806 -2.4631 -0.0967907 -0.0257536 0.994972 202 212 210
0.931667 0.244525 -2.46464 -0.0383681 0.215766 0.975691 195 206 205
0.953122 0.24453 -2.45702 -0.0613401 -0.362882 0.929814 188 196 199
-0.474016 0.714284 -3.50715 -0.611063 -0.164543 0.774292 93 70 64
-0.457568 0.707486 -3.48 0.148832 0.438506 0.886319 122 111 108
-0.432385 0.706513 -3.46713 -0.33189 0.275656 0.902143 176 174 170
-0.371763 0.640605 -3.27459 -0.671067 0.386098 0.632928 221 226 231
-0.347572 0.642215 -3.26316 -0.458402 0.410236 0.7884 220 226 231
-0.347493 0.642281 -3.26315 -0.461587 0.410378 0.786465 220 226 231
-0.32667 0.639328 -3.24628 -0.437857 0.206276 0.875061 217 225 229
-0.313628 0.629598 -3.24433 -0.437754 0.421213 0.794324 217 227 231
-0.283851 0.60903 -3.21501 -0.44714 0.0473565 0.893209 202 219 223
-0.292882 0.627313 -3.21851 -0.495449 -0.0530132 0.867018 220 228 233
-0.26487 0.608779 -3.20398 -0.429751 -0.00629098 0.902925 223 222 227
-0.24598 0.60889 -3.19483 -0.459001 0.0061094 0.888415 225 230 234
-0.217845 0.590805 -3.17976 -0.478609 -0.0305945 0.877495 162 210 220
-0.199677 0.59085 -3.17011 -0.498635 0.013754 0.866703 183 222 232
-0.181185 0.590836 -3.15939 -0.418167 0.0155689 0.908237 215 231 234
-0.156836 0.583943 -3.14898 -0.36771 0.0986672 0.924691 226 212 220
-0.128752 0.56563 -3.1338 -0.447078 -0.0390476 0.893642 193 181 190
-0.110332 0.56589 -3.12612 -0.432673 0.120654 0.893441 133 205 221
-0.0885197 0.567104 -3.12124 -0.347596 0.414091 0.841252 155 214 226
-0.0801501 0.54854 -3.11381 -0.15509 0.342602 0.926591 138 193 202
-0.0683787 0.544 -3.10114 -0.372834 0.0556211 0.926229 196 158 173
-0.0515876 0.543298 -3.09011 -0.442017 -0.0261821 0.896625 222 117 152
-0.0265844 0.531328 -3.0772 -0.564206 -0.0902048 0.820692 198 169 181
-0.0163892 0.543023 -3.06508 -0.638667 -0.239586 0.731234 155 193 205
0.00785199 0.530732 -3.06116 -0.409808 -0.0251116 0.911826 79 195 222
0.0255021 0.52881 -3.05639 -0.384562 0.261726 0.885218 143 201 208
0.0340014 0.523436 -3.05026 -0.0221108 0.237803 0.971062 187 171 184
0.0574923 0.50735 -3.03399 -0.408617 -0.170526 0.896634 229 123 158
0.0744858 0.506978 -3.02768 -0.405469 -0.114013 0.906971 211 161 175
0.114617 0.497686 -3.01477 -0.234357 0.227973 0.945042 99 119 122
0.113064 0.485703 -2.98753 -0.718075 0.173413 0.674015 93 85 82
0.330841 0.491687 -3.11104 -0.451018 -0.178753 0.874432 43 42 34
0.342312 0.488136 -3.10457 -0.977832 0.167786 0.125267 33 29 23
