ply
format ascii 1.0
element face 0
property list uchar int vertex_indices
element vertex 769
property float x
property float y
property float z
property uchar diffuse_red
property uchar diffuse_green
property uchar diffuse_blue
end_header
-5.385522e-01 5.740636e-01 -3.374476e+00 135 189 173
-3.231460e-01 8.823146e-02 -3.006696e+00 210 207 200
-3.468209e-01 2.270346e-02 -3.018209e+00 207 208 202
-2.872599e-01 6.364483e-01 -3.519971e+00 206 94 130
2.782348e-01 7.629175e-01 -2.791437e+00 208 220 220
-3.421470e-01 -6.860847e-02 -3.018603e+00 23 23 21
-2.973916e-01 -4.033982e-02 -2.981888e+00 23 22 24
-2.973916e-01 -4.033982e-02 -2.981888e+00 23 22 24
-3.118586e-01 2.054785e-02 -2.990012e+00 213 215 209
-2.657967e-01 3.837403e-03 -2.954012e+00 204 212 204
7.190957e-01 -6.956807e-02 -2.532779e+00 205 225 223
-1.304441e-01 4.574344e-01 -3.132386e+00 190 221 179
-1.304441e-01 4.574344e-01 -3.132386e+00 190 221 179
-1.891445e-01 -1.679048e-01 -2.905476e+00 206 212 212
-3.310909e-01 3.445141e-03 -3.008454e+00 21 20 22
-3.095283e-01 -3.310347e-03 -2.992834e+00 26 24 27
-2.990619e-01 9.243099e-03 -2.979727e+00 206 205 202
7.217074e-01 -4.519957e-02 -2.531296e+00 74 62 57
-2.716204e-01 -2.762031e-01 -2.964558e+00 217 34 24
7.441925e-01 -5.717882e-02 -2.501415e+00 195 219 214
-2.719093e-01 1.215842e-01 -2.953151e+00 71 38 22
3.279051e-01 7.852105e-01 -2.756463e+00 215 224 225
-3.765306e-01 -1.286313e-01 -3.041703e+00 212 189 53
3.684771e-01 9.169675e-02 -2.871082e+00 87 76 19
-5.730399e-01 6.491641e-01 -3.382041e+00 201 112 134
7.501593e-01 -3.978883e-02 -2.504384e+00 74 65 64
7.501593e-01 -3.978883e-02 -2.504384e+00 74 65 64
-5.814561e-02 5.084514e-01 -2.832649e+00 192 160 171
6.073591e-01 4.772491e-01 -2.506859e+00 225 239 239
4.516340e-01 5.420556e-01 -2.669540e+00 228 243 250
7.710815e-01 3.076422e-01 -2.506012e+00 209 222 219
3.062333e-01 7.313085e-01 -2.835066e+00 93 90 74
3.591835e-01 5.188096e-02 -2.866027e+00 191 232 94
6.301170e-01 -2.898646e-01 -2.636592e+00 178 204 203
6.017180e-01 -2.579181e-01 -2.661779e+00 21 27 28
7.215342e-01 -4.487765e-02 -2.529165e+00 74 62 57
7.431660e-01 2.869813e-01 -2.527004e+00 210 227 224
6.128740e-01 -2.045271e-01 -2.657647e+00 171 200 199
8.020730e-01 -1.649866e-01 -2.475681e+00 193 210 207
7.661800e-01 -4.759270e-02 -2.490760e+00 205 225 223
4.770511e-01 5.171069e-01 -2.664009e+00 217 234 241
-6.255387e-01 -3.686006e-01 -3.121638e+00 25 70 142
6.315794e-01 -2.056185e-01 -2.646272e+00 155 173 167
4.964506e-01 5.190078e-01 -2.665837e+00 10 32 44
2.129652e-01 6.656459e-01 -2.877986e+00 131 133 125
3.353344e-01 7.620507e-01 -2.757052e+00 198 214 211
4.001799e-01 3.503034e-01 -2.635906e+00 13 14 11
-2.943942e-01 -5.048096e-01 -2.769724e+00 238 245 87
-4.989645e-01 7.182918e-01 -3.477081e+00 35 22 16
6.681039e-01 -1.424877e-01 -2.612033e+00 85 81 74
-2.063963e-01 -3.927668e-01 -2.948403e+00 235 41 32
-8.835941e-01 -3.778526e-01 -3.229240e+00 24 24 23
6.162628e-01 -1.389770e-01 -2.640242e+00 187 204 201
6.434591e-01 9.493388e-02 -2.628868e+00 182 203 200
6.561721e-01 3.309416e-01 -2.499440e+00 210 223 222
5.065363e-01 5.016092e-01 -2.678039e+00 191 218 225
4.782342e-01 5.443676e-01 -2.671180e+00 48 58 64
-5.462704e-01 -5.147302e-01 -2.887048e+00 175 124 56
6.804733e-01 -1.239910e-01 -2.606677e+00 77 78 76
6.312376e-01 -1.241744e-01 -2.634905e+00 193 212 210
6.168831e-01 7.645309e-02 -2.627793e+00 200 218 216
7.572222e-01 3.483016e-01 -2.467199e+00 209 224 226
-2.302659e-01 6.297744e-01 -3.504974e+00 57 172 203
3.976884e-01 6.043585e-01 -2.749329e+00 80 57 39
-6.622761e-01 -6.316210e-01 -2.674135e+00 25 26 29
-1.219378e-01 -5.661684e-01 -2.717449e+00 30 45 16
-2.626990e-01 -5.319981e-01 -2.719501e+00 165 188 150
-8.613103e-01 -3.451148e-01 -3.242792e+00 45 45 45
8.917885e-01 -2.576792e-01 -2.505739e+00 111 109 115
9.213725e-01 -2.315958e-01 -2.530300e+00 156 170 168
2.839133e-01 -2.112977e-01 -2.488137e+00 123 199 99
8.219430e-01 -2.028957e-01 -2.480869e+00 191 209 209
6.351235e-01 -8.967080e-02 -2.614664e+00 173 193 191
5.986227e-01 7.334943e-03 -2.595329e+00 168 184 181
4.159332e-01 9.385741e-04 -3.420686e+00 31 71 6
5.563370e-01 1.514542e-01 -2.508271e+00 82 75 68
-4.585184e-02 1.858269e-01 -2.908826e+00 60 82 69
-2.490630e-01 9.873410e-01 -3.402448e+00 176 175 180
-4.761381e-01 -5.989164e-01 -2.682043e+00 97 111 121
-1.530439e-01 -5.728309e-01 -2.668854e+00 57 109 41
-4.734210e-01 -5.789912e-01 -2.752856e+00 65 84 82
2.471382e-01 -2.848482e-01 -2.489227e+00 116 181 93
2.583824e-01 -2.606667e-01 -2.480886e+00 80 135 54
2.716153e-01 -2.472105e-01 -2.474380e+00 80 145 61
9.013820e-01 -2.165790e-01 -2.504916e+00 126 129 134
9.046654e-01 -2.009669e-01 -2.515291e+00 169 179 180
6.382046e-01 -1.190401e-01 -2.625210e+00 191 209 205
5.559698e-01 2.381766e-02 -2.576032e+00 198 221 219
-3.259071e-01 3.915264e-02 -3.004848e+00 13 14 12
-2.830417e-01 4.940505e-02 -2.970435e+00 59 57 58
6.485355e-01 1.234392e-01 -2.630808e+00 178 199 191
6.879786e-01 1.458729e-01 -2.564681e+00 174 194 192
6.879786e-01 1.458729e-01 -2.564681e+00 174 194 192
-2.412434e-01 3.029227e-01 -3.194354e+00 34 134 164
3.533193e-01 4.046624e-01 -2.570382e+00 128 207 115
3.290819e-01 4.115139e-01 -2.564053e+00 133 210 116
-1.691424e-01 6.224640e-01 -3.481665e+00 209 107 135
4.802385e-01 4.903394e-01 -2.656892e+00 137 203 134
4.964123e-01 5.192853e-01 -2.666851e+00 10 32 44
6.081941e-01 5.042403e-01 -2.507740e+00 211 222 220
1.063600e-01 8.393198e-01 -3.097347e+00 162 165 158
1.063600e-01 8.393198e-01 -3.097347e+00 162 165 158
4.281325e-01 7.772500e-01 -2.727974e+00 181 191 184
-5.562505e-01 -6.641681e-01 -2.608772e+00 142 152 151
-1.384515e-01 -5.815405e-01 -2.677663e+00 102 180 92
-5.886326e-01 -5.436793e-01 -2.846030e+00 44 70 66
6.316035e-01 -4.356953e-01 -2.585758e+00 107 131 135
2.246459e-01 -3.306486e-01 -2.484869e+00 80 130 49
6.209709e-01 -3.114501e-01 -2.627643e+00 55 73 73
3.334614e-01 -2.919523e-01 -2.494003e+00 61 107 43
3.001976e-01 -2.645787e-01 -2.489990e+00 71 133 50
-1.799267e-01 -1.707727e-01 -2.889364e+00 217 222 213
6.429240e-01 -1.060346e-01 -2.621280e+00 112 118 114
6.429240e-01 -1.060346e-01 -2.621280e+00 112 118 114
-3.248188e-01 -9.566717e-02 -2.998838e+00 34 36 33
-2.913458e-01 1.545339e-01 -2.979874e+00 134 95 81
-4.272941e-01 3.309355e-01 -3.299065e+00 135 170 191
4.952515e-01 3.394840e-01 -2.687973e+00 163 212 132
6.641049e-01 3.348180e-01 -2.494407e+00 219 231 231
6.692169e-01 3.456802e-01 -2.493905e+00 203 217 218
7.768665e-01 3.491795e-01 -2.469669e+00 167 179 179
3.563782e-01 3.801750e-01 -2.590185e+00 94 80 35
3.762512e-02 4.296512e-01 -2.402559e+00 203 156 172
4.299338e-01 7.654269e-01 -2.735454e+00 206 218 214
4.299338e-01 7.654269e-01 -2.735454e+00 206 218 214
-3.756227e-01 9.285481e-01 -3.419271e+00 55 28 21
6.813959e-01 -5.619051e-01 -2.529330e+00 176 194 194
8.898553e-01 6.881137e-02 -2.456558e+00 93 91 84
-5.083749e-01 2.534997e-01 -3.326806e+00 47 61 46
2.249090e-01 7.021751e-01 -2.828833e+00 204 215 215
7.353284e-01 -5.351040e-01 -2.498545e+00 81 76 73
6.692809e-01 -1.432154e-01 -2.611317e+00 85 81 74
-6.093163e-01 1.509209e-01 -3.408426e+00 182 188 156
8.850165e-01 3.709487e-01 -2.461437e+00 111 84 75
4.212204e-01 8.104203e-01 -2.708302e+00 214 225 225
4.213183e-01 8.128427e-01 -2.707755e+00 214 225 225
-2.589249e-01 -1.287753e-01 -2.949050e+00 155 161 158
-2.697792e-01 1.210372e-01 -2.958451e+00 71 38 22
-3.624525e-01 2.505622e-01 -3.142890e+00 68 101 75
-3.375471e-01 -7.072115e-01 -2.519526e+00 45 27 17
-1.892227e-01 -1.504618e-01 -2.900389e+00 215 217 213
4.537450e-01 1.324974e-01 -2.849687e+00 94 83 15
8.844196e-01 3.368961e-01 -2.486970e+00 204 217 217
9.292286e-01 3.619266e-01 -2.458706e+00 197 209 206
1.079636e+00 4.578387e-01 -2.470297e+00 171 179 182
1.064037e+00 4.958628e-01 -2.434954e+00 177 181 184
9.665247e-01 5.386405e-01 -2.422675e+00 163 163 164
-4.716162e-01 -6.767966e-01 -2.560566e+00 31 36 40
4.776726e-01 5.438651e-01 -2.666929e+00 48 58 64
-3.377377e-01 -7.562614e-01 -2.478060e+00 170 178 165
7.119243e-01 -6.761529e-01 -2.517254e+00 164 183 190
6.697957e-01 -5.739150e-01 -2.524594e+00 198 222 228
-2.341493e-01 -9.153451e-02 -2.933068e+00 28 22 24
-2.515553e-01 -2.649045e-02 -2.947539e+00 29 26 26
-2.515553e-01 -2.649045e-02 -2.947539e+00 29 26 26
-2.813779e-01 -1.547810e-02 -2.971790e+00 25 24 25
4.142394e-01 2.744193e-01 -2.653454e+00 144 215 123
-3.976243e-01 3.302657e-01 -3.287919e+00 173 64 101
-3.447906e-01 4.902420e-01 -3.105136e+00 211 76 123
-3.447906e-01 4.902420e-01 -3.105136e+00 211 76 123
6.297999e-01 8.508317e-01 -2.597243e+00 188 199 202
-3.081062e-01 -7.641036e-01 -2.449464e+00 135 131 128
-4.836449e-01 -7.624936e-01 -2.549589e+00 135 130 122
-3.969546e-01 -4.298306e-01 -2.918134e+00 47 54 5
-1.910569e-01 -2.846944e-01 -2.902972e+00 48 9 10
-1.851137e-01 -2.585200e-01 -2.900818e+00 51 3 1
-2.872719e-01 -2.599680e-01 -2.980683e+00 41 27 21
6.515606e-01 -1.980803e-01 -2.635425e+00 172 188 185
6.515606e-01 -1.980803e-01 -2.635425e+00 172 188 185
-1.685633e-01 -1.613727e-01 -2.883931e+00 43 5 2
-1.639422e-01 -1.434926e-01 -2.883295e+00 39 9 5
-1.592150e-01 -1.180519e-01 -2.879591e+00 48 10 9
-3.751218e-01 -1.321148e-01 -3.044132e+00 212 189 53
-1.969030e-01 -1.139364e-01 -2.907422e+00 21 20 21
-3.583621e-01 -1.062930e-01 -3.026251e+00 52 9 4
-3.677329e-01 -8.351679e-02 -3.035888e+00 203 198 195
-2.173939e-01 -8.023123e-02 -2.920655e+00 213 216 211
-2.776048e-01 -8.086127e-02 -2.965263e+00 19 21 20
-5.347362e-01 -9.175429e-02 -3.297179e+00 90 158 98
-1.616592e-01 -2.700205e-02 -2.877734e+00 242 40 28
-1.567328e-01 -5.261323e-03 -2.877482e+00 241 43 32
-3.314339e-01 3.188842e-03 -3.008864e+00 21 20 22
-2.471956e-01 2.477745e-02 -3.080345e+00 211 215 211
7.197931e-01 1.074880e-01 -2.501875e+00 179 202 200
-4.781723e-01 1.366018e-01 -3.262750e+00 49 108 75
5.127194e-01 1.409671e-01 -2.834225e+00 188 225 87
5.119584e-01 1.416594e-01 -2.833448e+00 188 225 87
-3.631600e-01 2.222727e-01 -3.198221e+00 58 71 58
-2.028363e-01 5.738478e-01 -3.176498e+00 62 175 201
-4.338900e-01 -7.277671e-01 -2.552651e+00 166 172 158
6.720847e-01 -6.089562e-01 -2.520609e+00 57 67 75
-1.857977e-01 -2.684994e-01 -2.900642e+00 70 4 2
-2.273918e-01 -2.610247e-01 -2.930727e+00 173 129 129
-2.347155e-01 -1.534735e-01 -2.933733e+00 212 211 207
-2.199740e-01 -1.375297e-01 -2.922516e+00 26 22 21
6.404407e-01 -1.195585e-01 -2.635488e+00 191 209 205
-1.839565e-01 -1.261707e-01 -2.899326e+00 210 220 210
-2.267757e-01 -1.145335e-01 -2.929681e+00 209 210 204
-1.812894e-01 -1.089052e-01 -2.894814e+00 16 16 20
-2.094040e-01 -1.035388e-01 -2.915505e+00 29 30 30
-2.094040e-01 -1.035388e-01 -2.915505e+00 29 30 30
-2.547337e-01 -9.162907e-02 -2.949008e+00 30 28 28
-1.979422e-01 -7.525671e-02 -2.906922e+00 18 20 22
-1.979422e-01 -7.525671e-02 -2.906922e+00 18 20 22
-3.007633e-01 -7.964477e-02 -2.984375e+00 14 14 14
-3.219346e-01 -6.508270e-02 -2.999523e+00 29 24 28
-3.219346e-01 -6.508270e-02 -2.999523e+00 29 24 28
-1.661003e-01 -4.681449e-02 -2.886260e+00 28 19 17
-1.929058e-01 -2.191776e-02 -2.899993e+00 226 35 29
-2.135603e-01 -1.489494e-02 -2.916794e+00 231 39 32
-1.920498e-01 5.791533e-03 -2.902856e+00 237 43 36
-1.920498e-01 5.791533e-03 -2.902856e+00 237 43 36
-1.682171e-01 1.593057e-02 -2.881481e+00 107 7 0
-2.817771e-01 3.238333e-02 -2.969404e+00 218 219 217
-6.147564e-01 1.421241e-01 -3.407768e+00 184 189 159
-6.147564e-01 1.421241e-01 -3.407768e+00 184 189 159
8.057377e-01 3.610980e-01 -2.436007e+00 197 208 212
-9.829765e-02 5.555235e-01 -3.112369e+00 67 183 204
4.552919e-01 5.605079e-01 -2.674482e+00 52 79 88
9.630724e-02 8.356512e-01 -3.123661e+00 194 197 188
-2.588676e-01 -2.401943e-01 -2.983970e+00 22 19 19
5.997620e-01 -2.082345e-01 -2.671341e+00 69 91 88
-2.553334e-01 -1.480320e-01 -2.949768e+00 216 215 213
-2.830708e-01 -1.239219e-01 -2.969659e+00 24 25 23
-2.830708e-01 -1.239219e-01 -2.969659e+00 24 25 23
-1.768185e-01 -1.119838e-01 -2.895208e+00 36 35 37
-1.675128e-01 -1.024136e-01 -2.886031e+00 222 222 221
-5.386832e-01 -1.129639e-01 -3.302850e+00 20 61 22
-3.243644e-01 -9.531554e-02 -3.000402e+00 34 36 33
-1.592820e-01 -6.180469e-02 -2.880434e+00 207 213 209
-1.790489e-01 -5.556976e-02 -2.894515e+00 215 216 218
-2.067171e-01 -4.720248e-02 -2.914238e+00 213 216 206
-2.067171e-01 -4.720248e-02 -2.914238e+00 213 216 206
-2.685089e-01 -3.116934e-02 -2.959441e+00 198 204 200
-2.685089e-01 -3.116934e-02 -2.959441e+00 198 204 200
-1.442883e-01 -2.210418e-02 -2.868554e+00 123 0 0
-1.442883e-01 -2.210418e-02 -2.868554e+00 123 0 0
-3.021299e-01 -1.798154e-02 -2.986076e+00 216 221 217
-2.278122e-01 -1.217987e-02 -2.924224e+00 224 35 24
-1.706849e-01 2.828858e-02 -2.887397e+00 247 41 40
-3.228160e-01 6.104733e-02 -3.000696e+00 56 58 54
-4.234169e-01 3.097492e-01 -3.089833e+00 121 176 191
3.068037e-01 5.888820e-01 -2.781090e+00 72 103 101
4.319306e-02 6.481647e-01 -1.781692e+00 178 170 179
-5.718915e-01 6.469929e-01 -3.385744e+00 192 113 126
-2.033034e-01 5.758455e-01 -3.167536e+00 55 170 198
-4.411213e-01 2.390486e-01 -3.239449e+00 75 92 82
-1.484390e-01 6.678050e-01 -3.271140e+00 215 226 230
-5.022985e-01 2.664138e-01 -3.325431e+00 47 61 46
-2.747411e-01 -4.987155e-02 -2.960218e+00 79 83 73
-3.981703e-01 -4.170428e-01 -2.949827e+00 235 240 76
-2.350938e-01 -9.193750e-02 -2.932518e+00 28 22 24
-3.752838e-01 3.132539e-01 -3.110582e+00 173 64 101
-3.371029e-01 6.047483e-01 -3.283751e+00 49 168 200
-1.965161e-01 -1.136997e-01 -2.907806e+00 21 20 21
-4.002316e-01 3.044298e-01 -2.987398e+00 34 96 129
-3.126748e-01 -2.488583e-01 -2.991618e+00 39 24 21
-2.199269e-01 -1.376598e-01 -2.922515e+00 26 22 21
-1.929791e-01 -9.607254e-02 -2.904893e+00 215 219 215
-2.818953e-01 3.230000e-02 -2.969430e+00 218 219 217
-3.470394e-01 3.071592e-01 -3.259945e+00 106 97 125
-1.172025e-01 5.600473e-01 -3.124297e+00 120 189 202
9.054297e-02 8.377872e-01 -3.117462e+00 194 197 188
7.104391e-01 -2.368353e-01 -2.533353e+00 170 192 189
7.096226e-01 -2.380514e-01 -2.531224e+00 170 192 189
-5.192765e-01 -2.286358e-01 -3.293976e+00 94 132 92
-1.795494e-01 -1.714193e-01 -2.895309e+00 217 222 213
-5.316176e-01 -7.145549e-02 -3.297037e+00 22 32 21
-1.727441e-01 -1.835993e-02 -2.887560e+00 135 12 6
-2.359384e-01 3.578612e-02 -2.929834e+00 58 58 61
-1.736883e-01 2.738286e-01 -3.164077e+00 187 133 160
-2.435690e-01 2.852006e-01 -3.204164e+00 101 99 137
7.945212e-01 5.217679e-01 -2.539347e+00 224 233 231
7.804273e-01 -3.284271e-01 -2.594226e+00 194 196 187
4.202562e-01 5.065080e-01 -2.699624e+00 132 207 112
-4.019345e-01 -4.900943e-01 -2.892302e+00 71 61 20
-7.534306e-02 6.560978e-01 -3.225330e+00 222 232 234
5.165254e-01 6.215663e-01 -2.643842e+00 38 37 33
-4.603751e-01 -3.052319e-01 -3.154658e+00 89 49 18
-3.167445e-01 -1.947338e-01 -3.003307e+00 17 18 17
-3.479414e-01 -6.097343e-02 -3.032421e+00 23 23 25
-6.277467e-01 -4.387282e-02 -3.434445e+00 181 186 148
-3.947323e-01 9.598167e-02 -3.112907e+00 107 58 31
-1.751439e-01 9.532638e-02 -2.911650e+00 220 224 219
2.848227e-01 6.582469e-01 -2.825346e+00 33 30 23
-1.956015e-01 -7.725549e-03 -2.906637e+00 224 50 43
-4.517146e-01 1.178315e-01 -3.248684e+00 100 183 124
-3.146693e-01 -4.906695e-01 -2.796350e+00 233 241 80
-6.417768e-01 -1.973072e-01 -3.445316e+00 85 150 167
-4.130849e-01 7.202562e-01 -3.444006e+00 174 170 164
8.659589e-02 7.361247e-01 -3.135217e+00 199 203 197
4.892361e-01 6.441089e-01 -2.784722e+00 56 47 39
4.916177e-01 6.448416e-01 -2.787837e+00 56 47 39
4.817187e-01 7.163251e-01 -2.806440e+00 207 224 220
-4.680222e-01 -3.773958e-01 -3.032526e+00 225 231 72
-4.731097e-01 -3.772208e-01 -3.021658e+00 225 231 72
-5.440017e-01 -1.903968e-01 -3.311464e+00 83 160 101
-5.071055e-01 -1.360515e-01 -3.283502e+00 30 31 28
6.777079e-01 -1.457977e-01 -2.616558e+00 67 47 39
-4.569942e-01 7.285590e-02 -3.253095e+00 92 178 119
-4.569942e-01 7.285590e-02 -3.253095e+00 92 178 119
4.542926e-01 8.886946e-02 -2.823652e+00 204 237 103
5.826785e-01 4.441838e-01 -2.611042e+00 196 216 214
-2.192995e-01 1.058876e+00 -3.447761e+00 50 21 14
-2.830303e-01 -7.087677e-01 -2.497369e+00 40 28 19
3.059360e-02 -6.450618e-01 -2.529533e+00 26 39 17
-5.390965e-01 -5.063576e-01 -2.882345e+00 172 133 55
-4.574273e-01 -4.413733e-01 -2.991837e+00 100 78 16
-4.133610e-01 -4.192567e-01 -2.949877e+00 231 237 76
-5.894430e-01 -3.939275e-01 -3.087592e+00 56 56 54
-5.410249e-01 -2.422690e-01 -3.307110e+00 30 42 29
6.703873e-01 -2.797932e-01 -2.594619e+00 208 215 208
-4.768823e-01 -7.494366e-02 -3.268906e+00 114 166 102
-4.768823e-01 -7.494366e-02 -3.268906e+00 114 166 102
-1.715858e-01 -7.539773e-02 -2.888188e+00 137 142 138
-1.708118e-01 -7.578658e-02 -2.889014e+00 137 142 138
6.986056e-01 -1.149841e-01 -2.581352e+00 172 185 176
-1.122657e-01 2.092399e-02 -2.847482e+00 251 42 38
-5.006959e-01 8.923640e-02 -3.280590e+00 36 47 36
-2.957413e-01 8.122560e-02 -2.981204e+00 213 219 212
-5.514366e-01 1.081221e-01 -2.095114e+00 172 168 143
2.534750e-01 3.446551e-01 -2.792266e+00 94 0 0
1.095605e-02 6.239993e-01 -3.156537e+00 175 174 158
1.095605e-02 6.239993e-01 -3.156537e+00 175 174 158
-3.344511e-01 7.388489e-01 -3.310033e+00 212 217 223
3.118020e-01 7.419070e-01 -2.765615e+00 128 121 106
-2.475327e-01 -7.328423e-01 -2.485129e+00 143 151 138
-4.354479e-01 -5.279118e-01 -2.811484e+00 31 44 37
-5.180305e-01 -4.676136e-01 -2.872385e+00 43 48 48
-7.515307e-01 -3.851608e-01 -3.221950e+00 108 120 111
-6.530897e-01 -3.882636e-01 -3.117937e+00 49 52 60
6.350621e-01 -4.914846e-01 -2.539598e+00 201 210 211
-5.112865e-01 -2.887497e-01 -3.288628e+00 69 156 108
-5.124230e-01 -2.896180e-01 -3.289143e+00 69 156 108
-5.108983e-01 -2.893184e-01 -3.289818e+00 69 156 108
-5.447194e-01 -2.851152e-01 -3.321164e+00 68 153 108
-3.198067e-01 -3.208951e-02 -2.998717e+00 210 212 206
-3.200517e-01 5.033556e-02 -2.997949e+00 197 197 197
-3.996657e-01 2.140224e-01 -3.220470e+00 160 171 164
-3.998165e-01 2.138254e-01 -3.219942e+00 160 171 164
6.935532e-01 6.643675e-02 -2.543474e+00 209 221 212
5.479396e-01 1.155144e-01 -2.824144e+00 12 28 10
7.873559e-01 3.330049e-01 -2.485888e+00 125 102 94
7.873559e-01 3.330049e-01 -2.485888e+00 125 102 94
5.880118e-01 4.634016e-01 -2.566556e+00 137 140 123
-5.858602e-01 -2.432490e-01 -3.336646e+00 88 155 95
-5.501705e-01 -1.464716e-01 -3.312604e+00 37 67 43
7.147030e-01 -1.393951e-01 -2.553899e+00 204 214 206
-2.830581e-01 -1.685925e-02 -2.970760e+00 28 27 31
7.197064e-01 -1.189695e-01 -2.537489e+00 140 139 132
7.197064e-01 -1.189695e-01 -2.537489e+00 140 139 132
-2.101489e-01 1.448236e-02 -2.917983e+00 57 36 40
7.140650e-01 -4.235260e-02 -2.520922e+00 94 69 59
-5.859557e-01 1.514024e-01 -3.402617e+00 201 63 107
-4.880499e-01 1.606836e-01 -3.271263e+00 81 165 112
6.850902e-01 6.125337e-03 -2.579931e+00 197 205 194
-4.153501e-01 1.848669e-01 -3.232244e+00 61 83 68
-4.149539e-01 1.849369e-01 -3.232112e+00 61 83 68
-4.026795e-01 2.477933e-01 -3.219066e+00 65 88 74
5.667268e-01 2.639754e-01 -2.549879e+00 119 129 120
-1.807938e-01 5.076339e-01 -3.367288e+00 189 218 177
-5.150073e-01 5.485218e-01 -3.349449e+00 45 158 195
-5.390419e-01 6.417468e-01 -3.361639e+00 171 148 153
5.801420e-01 5.306640e-01 -2.517358e+00 217 231 232
1.359193e-01 7.373104e-01 -3.126419e+00 203 213 207
1.407369e-01 7.385490e-01 -3.134874e+00 203 213 207
8.080789e-02 8.329059e-01 -3.151701e+00 150 149 144
1.388654e-01 8.421457e-01 -3.099896e+00 195 198 191
5.219255e-01 8.114232e-01 -2.685859e+00 178 185 178
-3.486945e-01 -7.301100e-01 -2.499078e+00 151 159 146
-7.029857e-01 -7.076213e-01 -2.719186e+00 128 126 117
-6.215100e-01 -4.950133e-01 -2.964337e+00 177 198 192
-6.215100e-01 -4.950133e-01 -2.964337e+00 177 198 192
-3.914320e-01 -4.547371e-01 -2.863212e+00 44 57 20
6.471907e-01 -5.122648e-01 -2.536651e+00 207 214 214
-3.564751e-01 -1.066441e-01 -3.028366e+00 60 18 15
6.958327e-01 -1.954460e-01 -2.592049e+00 137 142 133
-1.456448e-01 -5.640664e-02 -2.870061e+00 56 5 0
6.987166e-01 -1.523929e-01 -2.585028e+00 220 230 222
-2.364916e-01 -4.247057e-02 -2.936546e+00 213 220 214
-2.368096e-01 -4.292255e-02 -2.936098e+00 213 220 214
-1.569523e-01 -4.475520e-03 -2.877155e+00 246 42 40
-1.382315e-01 3.802431e-03 -2.865422e+00 64 11 3
-1.382315e-01 3.802431e-03 -2.865422e+00 64 11 3
7.443708e-01 -4.050704e-02 -2.494444e+00 105 77 70
7.446820e-01 -4.091790e-02 -2.493503e+00 105 77 70
3.391291e-01 2.809666e-02 -2.908754e+00 100 156 78
3.391291e-01 2.809666e-02 -2.908754e+00 100 156 78
-5.920994e-01 2.998336e-01 -3.401163e+00 116 174 185
-2.925926e-01 3.109978e-01 -3.229181e+00 173 56 99
-3.967777e-01 3.309404e-01 -3.288848e+00 164 70 106
5.654998e-01 2.641756e-01 -2.547712e+00 117 127 118
-1.246140e-02 7.914306e-01 -3.214465e+00 191 197 188
4.901200e-01 6.938588e-01 -2.627137e+00 132 147 131
3.691874e-01 7.663736e-01 -2.755444e+00 176 178 169
-8.532954e-01 -3.342368e-01 -3.269248e+00 37 36 39
6.443070e-01 -3.827256e-01 -2.581192e+00 175 181 177
-2.428507e-01 -2.555107e-01 -2.927216e+00 162 123 122
-3.756286e-01 -2.278398e-01 -3.043671e+00 35 27 13
-3.756286e-01 -2.278398e-01 -3.043671e+00 35 27 13
3.256236e-01 -2.175433e-01 -3.061078e+00 29 64 15
-5.530997e-01 -1.127374e-01 -3.312788e+00 97 160 105
-3.134922e-01 -1.157760e-01 -2.996080e+00 211 216 209
-3.147984e-01 -1.143173e-01 -2.994261e+00 211 216 209
-1.850069e-01 -1.259780e-01 -2.898411e+00 217 222 217
-2.101465e-01 -1.217401e-01 -2.912759e+00 212 213 208
-3.257385e-01 -9.490746e-02 -3.000029e+00 30 29 32
-2.976192e-01 -5.500412e-02 -2.983764e+00 22 22 26
-2.976192e-01 -5.500412e-02 -2.983764e+00 22 22 26
-3.022323e-01 -1.795987e-02 -2.985978e+00 217 218 211
-5.786618e-01 3.221724e-02 -3.405782e+00 121 168 168
7.383746e-01 -1.290110e-01 -2.499641e+00 214 220 212
-1.790705e-01 -1.380451e-02 -2.894000e+00 113 12 7
-1.792384e-01 -1.381044e-02 -2.894140e+00 113 12 7
-1.289362e-01 -8.920069e-03 -2.860788e+00 247 42 37
7.051454e-01 -1.061238e-01 -2.570146e+00 192 197 191
-2.816760e-01 3.244223e-02 -2.969500e+00 210 215 211
7.595534e-01 -8.615352e-02 -2.493280e+00 216 221 214
5.410862e-01 3.100545e-02 -2.578469e+00 122 126 108
5.577701e-01 5.710452e-01 -2.553074e+00 148 160 141
5.510894e-01 6.065648e-01 -2.584563e+00 207 218 210
2.151715e-01 7.253756e-01 -2.845536e+00 169 175 171
5.204489e-01 6.749414e-01 -2.551822e+00 222 237 236
1.940828e-01 8.544541e-01 -3.048293e+00 163 163 157
1.962137e-01 8.543620e-01 -3.050338e+00 163 163 157
-7.132797e-01 -6.884666e-01 -2.737537e+00 131 134 126
7.238042e-02 -5.583012e-01 -2.220519e+00 106 154 70
-9.154503e-01 -4.330681e-01 -3.173547e+00 18 28 29
-9.154503e-01 -4.330681e-01 -3.173547e+00 18 28 29
-8.911155e-01 -4.245666e-01 -3.181570e+00 33 37 34
-3.515392e-01 -4.570058e-01 -2.843140e+00 51 65 17
-5.693622e-01 -4.102614e-01 -3.083065e+00 78 59 26
-1.970587e-01 -2.681598e-01 -2.908613e+00 185 144 141
-3.200397e-01 -2.326016e-01 -2.997629e+00 161 123 122
-3.185157e-01 -2.326861e-01 -2.998996e+00 161 123 122
-2.913810e-01 -2.291826e-01 -2.978578e+00 26 23 22
2.822943e-01 -2.248890e-01 -2.479519e+00 98 164 71
-1.713256e-01 -1.287305e-01 -2.887454e+00 211 217 210
-1.713256e-01 -1.287305e-01 -2.887454e+00 211 217 210
-3.027025e-01 -1.023298e-01 -2.985948e+00 47 46 48
-2.470316e-01 -1.064921e-01 -2.943626e+00 204 206 200
-2.470316e-01 -1.064921e-01 -2.943626e+00 204 206 200
-2.655342e-01 -1.011777e-01 -2.956966e+00 225 226 220
-2.898746e-01 -9.440315e-02 -2.975914e+00 210 213 207
-3.099577e-01 -8.995382e-02 -2.992654e+00 212 209 201
-6.651874e-01 -2.721062e-02 -3.461494e+00 199 189 156
-2.910515e-01 -6.609739e-02 -2.976741e+00 213 214 207
-3.094700e-01 -5.910366e-02 -2.990613e+00 212 215 210
-3.094700e-01 -5.910366e-02 -2.990613e+00 212 215 210
-2.239823e-01 -6.085010e-02 -2.928951e+00 40 46 39
7.848501e-01 -1.382768e-01 -2.474936e+00 209 213 206
-2.018635e-01 -8.032678e-03 -2.909790e+00 134 12 10
-2.018635e-01 -8.032678e-03 -2.909790e+00 134 12 10
-2.203670e-01 1.250672e-03 -2.924389e+00 52 14 13
-2.469023e-01 8.740891e-03 -2.951180e+00 48 46 50
-3.083693e-01 5.445295e-02 -2.989591e+00 85 82 84
-5.646632e-01 1.321056e-01 -3.391321e+00 196 181 148
9.994477e-03 2.740823e-02 -2.592717e+00 52 99 29
-5.602094e-01 1.566016e-01 -3.390604e+00 195 169 140
4.669688e-01 3.779324e-02 -2.813454e+00 206 244 117
-3.914480e-01 2.090293e-01 -3.213798e+00 67 82 75
5.229492e-01 8.921412e-02 -2.580040e+00 191 206 188
7.001254e-01 9.100867e-02 -2.540299e+00 184 191 183
6.835082e-01 1.457868e-01 -2.558429e+00 180 190 184
-6.170689e-01 3.579298e-01 -3.409848e+00 151 152 172
5.868847e-01 3.438075e-01 -2.541567e+00 219 227 223
5.905169e-01 3.552264e-01 -2.537027e+00 172 181 174
5.731185e-01 3.835237e-01 -2.606107e+00 166 184 169
2.742676e-01 5.583677e-01 -2.801818e+00 197 216 214
1.070153e+00 4.697523e-01 -2.439485e+00 185 179 184
5.866338e-01 5.087166e-01 -2.539294e+00 169 181 171
1.556428e-01 6.286934e-01 -2.993936e+00 120 105 96
1.006865e-01 6.654447e-01 -3.137053e+00 179 180 173
-3.202676e-01 8.822564e-01 -3.393427e+00 105 84 84
9.572196e-01 6.947358e-01 -2.464400e+00 98 79 90
4.200165e-01 8.385514e-01 -2.692760e+00 213 224 226
2.579794e-01 4.006533e-01 -2.873545e+00 41 33 19
2.579794e-01 4.006533e-01 -2.873545e+00 41 33 19
9.290816e-01 5.105920e-01 -2.575945e+00 229 235 235
-3.890093e-01 -3.508345e-01 -2.996847e+00 223 197 47
-3.890855e-01 -3.514530e-01 -3.000733e+00 223 197 47
-6.273442e-01 -4.551991e-02 -3.433845e+00 183 184 147
1.308487e-01 6.410026e-01 -3.101191e+00 107 95 78
-6.300097e-01 -2.098101e-01 -3.457877e+00 81 157 171
-6.352921e-01 -2.087328e-01 -3.450326e+00 81 157 171
-4.379065e-02 1.652167e-01 -2.943980e+00 41 52 19
1.540769e-01 2.176822e-01 -2.979768e+00 125 191 101
-3.658754e-01 6.936095e-01 -3.381834e+00 72 48 36
-4.523243e-01 8.104257e-01 -3.463504e+00 25 20 17
-5.064274e-01 -1.366155e-01 -3.283191e+00 40 39 37
-4.165895e-01 9.795753e-02 -3.210177e+00 32 29 16
-3.443981e-02 1.051865e-01 -2.708830e+00 134 207 110
-3.526177e-01 6.534252e-01 -3.317503e+00 228 232 236
5.988928e-01 3.106809e-01 -2.526469e+00 226 237 233
8.120812e-02 7.368591e-01 -3.131457e+00 189 191 182
1.773801e-01 7.401705e-01 -3.095734e+00 180 184 178
1.998181e-01 8.104539e-01 -3.039898e+00 148 144 138
-6.670958e-01 -3.342538e-01 -3.561393e+00 114 118 124
-6.695804e-01 -3.323126e-01 -3.558662e+00 114 118 124
-2.721846e-01 -5.209176e-01 -2.732218e+00 242 255 128
-4.001674e-01 -2.470344e-01 -3.045836e+00 213 187 40
1.886343e-01 -4.397926e-01 -2.696385e+00 116 174 92
1.886343e-01 -4.397926e-01 -2.696385e+00 116 174 92
1.034507e-01 5.744802e-01 -3.149850e+00 232 241 242
9.133785e-01 2.890631e-01 -2.465443e+00 204 211 204
-8.953880e-02 7.632816e-01 -3.250930e+00 183 180 173
2.302834e-01 6.996288e-01 -2.849218e+00 197 212 214
3.919091e-01 8.510397e-01 -2.882327e+00 185 194 189
-5.990821e-01 -4.723484e-01 -2.976292e+00 33 38 32
-2.903754e-01 -5.603254e-01 -2.754017e+00 125 98 21
-4.992411e-01 -3.981155e-01 -3.087865e+00 55 43 10
-3.989684e-01 2.135298e-01 -3.220634e+00 154 166 157
5.343955e-01 -3.230273e-02 -2.630480e+00 121 203 105
5.343955e-01 -3.230273e-02 -2.630480e+00 121 203 105
2.128339e-02 2.287229e-01 -3.042836e+00 201 193 198
2.874466e-01 3.010366e-01 -2.688655e+00 239 116 179
5.595929e-01 2.503461e-01 -2.589333e+00 200 221 221
4.815605e-01 3.554404e-01 -2.491382e+00 217 232 229
3.420903e-02 8.310638e-01 -3.176575e+00 192 197 191
3.717502e-02 8.329422e-01 -3.178264e+00 192 197 191
3.317273e-01 7.922430e-01 -2.757327e+00 213 223 222
6.958245e-01 -6.374890e-01 -2.503150e+00 187 187 189
6.958245e-01 -6.374890e-01 -2.503150e+00 187 187 189
-1.744221e-01 -1.936195e-01 -2.895836e+00 39 18 17
-1.732398e-01 1.679783e-02 -2.893221e+00 134 12 8
-5.867005e-01 3.450066e-01 -3.397140e+00 116 180 191
-4.183313e-01 3.159487e-01 -3.305517e+00 169 185 198
5.526277e-01 -1.393735e-02 -2.600434e+00 66 79 34
5.687247e-01 9.249325e-02 -2.767410e+00 83 146 70
7.167653e-01 -1.289643e-02 -2.505035e+00 204 212 210
-3.699171e-01 6.426307e-01 -3.323536e+00 227 232 237
7.415701e-03 5.301944e-01 -3.114172e+00 230 132 163
5.784599e-01 3.222649e-01 -2.605878e+00 125 135 112
-3.378586e-01 7.549950e-01 -3.400888e+00 162 169 162
5.962563e-01 4.369432e-01 -2.523017e+00 216 230 228
-1.596064e-02 7.871741e-01 -3.213876e+00 194 198 190
6.489050e-02 7.966665e-01 -3.162283e+00 186 191 184
2.679735e-01 7.766768e-01 -2.999048e+00 187 197 189
-6.939559e-01 -3.862309e-01 -3.200111e+00 92 109 98
-5.548776e-01 -4.924339e-01 -2.926718e+00 55 63 63
-5.548776e-01 -4.924339e-01 -2.926718e+00 55 63 63
-5.046477e-01 -4.714710e-01 -2.947021e+00 58 66 63
-4.630446e-01 -4.747051e-01 -2.945724e+00 99 111 98
1.042946e-01 -7.480283e-01 -2.385177e+00 164 168 160
-5.272460e-01 -6.728665e-02 -3.306147e+00 44 39 36
1.583492e-01 -4.597510e-01 -2.636758e+00 38 49 15
-1.809545e-01 -2.541818e-01 -2.904730e+00 53 13 8
6.649188e-01 -6.263900e-01 -2.522751e+00 34 37 31
-3.682526e-01 -8.288466e-02 -3.034732e+00 203 206 200
-1.111529e-01 -3.177808e-02 -2.600769e+00 58 96 28
6.501833e-02 2.616908e-02 -2.568338e+00 154 214 123
-2.906258e-01 3.106665e-01 -3.232070e+00 203 101 131
7.033972e-01 -8.495340e-02 -2.555048e+00 133 130 115
7.159378e-01 -7.187948e-02 -2.530382e+00 207 209 202
6.931133e-01 -3.203120e-02 -2.553612e+00 190 194 183
7.197729e-01 -4.039777e-02 -2.531147e+00 89 76 53
6.055828e-02 2.825500e-01 -3.037883e+00 124 199 216
-5.384336e-01 5.481499e-01 -3.363722e+00 186 208 167
-5.384336e-01 5.481499e-01 -3.363722e+00 186 208 167
2.890269e-01 5.842023e-01 -2.803296e+00 26 35 35
2.046190e-01 6.652538e-01 -2.902097e+00 172 176 175
3.661869e-01 7.037498e-01 -2.827266e+00 174 185 178
3.047237e-01 7.337287e-01 -2.813101e+00 145 151 141
3.278287e-01 8.255656e-01 -2.959761e+00 180 184 178
2.881976e-01 8.510208e-01 -2.982857e+00 163 163 153
3.533457e-01 8.563075e-01 -2.934245e+00 146 146 139
3.910762e-01 8.202496e-01 -2.731341e+00 222 234 234
-6.575968e-01 -4.205370e-01 -3.116071e+00 76 99 90
-4.458935e-01 -5.585965e-01 -2.762563e+00 32 33 13
-3.874199e-01 -4.521992e-01 -2.880798e+00 47 52 13
1.149678e-02 -6.483042e-01 -2.545551e+00 147 150 141
-2.814926e-01 3.238386e-02 -2.969562e+00 213 214 213
-1.694452e-01 1.729519e-01 -3.093887e+00 204 204 186
-5.164381e-01 4.455844e-01 -3.350790e+00 160 188 188
5.694068e-01 2.831743e-01 -2.634717e+00 108 127 95
5.704086e-01 2.495564e-01 -2.512490e+00 212 226 226
1.492606e-01 5.683807e-01 -3.133483e+00 123 121 105
1.456465e-02 6.836584e-01 -3.152274e+00 94 84 76
5.891168e-01 4.293886e-01 -2.581871e+00 210 222 221
2.154361e-01 7.244408e-01 -2.845089e+00 158 163 161
5.072444e-01 7.114817e-01 -2.775987e+00 136 139 129
-8.559409e-01 -3.335272e-01 -3.266975e+00 42 51 47
-2.382344e-01 -5.484848e-01 -2.692052e+00 118 171 90
-5.007626e-01 -2.632575e-01 -3.279997e+00 115 140 124
-5.668288e-01 -1.291357e-01 -3.322095e+00 116 165 114
-6.429646e-01 5.842008e-02 -3.443322e+00 76 92 120
-6.506713e-01 6.846159e-02 -3.451118e+00 129 183 188
-2.747408e-01 -1.415283e-01 -2.969642e+00 211 212 207
-4.420137e-01 2.173093e-01 -3.244355e+00 95 109 92
-4.420137e-01 2.173093e-01 -3.244355e+00 95 109 92
7.077558e-01 -2.359708e-01 -2.548376e+00 191 196 184
-6.098287e-01 4.216331e-01 -3.408980e+00 198 127 146
2.864858e-01 2.335135e-01 -2.674957e+00 164 214 123
8.761372e-01 5.672176e-02 -2.448875e+00 36 39 38
5.580622e-01 2.213904e-01 -2.518649e+00 215 232 231
5.777091e-01 2.510786e-01 -2.473401e+00 225 236 237
-3.382600e-01 7.567130e-01 -3.409870e+00 166 166 160
6.458813e-01 3.108707e-01 -2.488163e+00 143 142 133
5.839490e-01 3.796176e-01 -2.577165e+00 173 180 167
2.968209e-01 5.458089e-01 -2.806492e+00 101 144 90
2.713428e-01 5.670420e-01 -2.820473e+00 22 29 36
2.980327e-01 5.735137e-01 -2.782507e+00 221 245 250
3.295072e-01 5.901788e-01 -2.779137e+00 208 238 241
1.051223e-01 8.042671e-01 -3.123333e+00 188 185 179
5.628418e-01 5.493934e-01 -2.557072e+00 137 150 128
9.023333e-02 8.554336e-01 -3.140099e+00 120 121 113
9.023333e-02 8.554336e-01 -3.140099e+00 120 121 113
4.873534e-01 7.143585e-01 -2.667981e+00 145 151 137
3.017853e-01 7.835724e-01 -2.777776e+00 221 231 232
-4.480209e-01 -4.233012e-01 -2.994155e+00 175 153 16
-3.622031e-01 -4.726820e-01 -2.830889e+00 184 202 84
-3.721216e-01 -4.435552e-01 -2.875908e+00 217 236 128
-3.562457e-01 -4.478472e-01 -2.870405e+00 37 57 8
-4.987764e-01 -2.302888e-01 -3.284200e+00 102 132 99
-5.531242e-01 -1.276528e-01 -3.313127e+00 40 84 44
-6.628101e-01 -3.142969e-02 -3.444062e+00 125 31 42
-2.853315e-01 -2.409408e-01 -2.973037e+00 179 138 142
-2.655218e-01 -2.478926e-01 -2.958712e+00 178 139 139
-2.694831e-01 -2.461333e-01 -2.961843e+00 178 139 139
-2.148899e-01 -2.624943e-01 -2.917602e+00 178 132 130
-2.481417e-01 -2.418772e-01 -2.944691e+00 33 24 22
-1.965565e-01 -2.682170e-01 -2.908909e+00 174 137 134
-2.542994e-01 -1.481814e-01 -2.950650e+00 213 217 213
-2.458867e-01 -1.064377e-01 -2.944411e+00 219 225 221
-3.321004e-01 -5.287961e-02 -3.007622e+00 212 212 209
-2.619224e-01 -7.548713e-02 -2.954951e+00 221 222 221
-2.459078e-01 -7.887130e-02 -2.943085e+00 224 224 219
-2.234529e-01 -6.734401e-02 -2.940205e+00 98 96 97
-1.677223e-01 -1.020967e-01 -2.886284e+00 221 221 222
-3.236145e-01 -1.064494e-02 -3.001522e+00 219 220 217
-5.584890e-01 1.777306e-01 -3.385496e+00 193 141 130
-2.777528e-01 3.291238e-03 -2.966392e+00 217 219 216
-3.290306e-01 2.971288e-02 -3.005525e+00 36 38 34
-3.290306e-01 2.971288e-02 -3.005525e+00 36 38 34
-2.488415e-01 -5.786490e-03 -2.946150e+00 220 206 205
-3.110318e-01 4.145706e-02 -2.991884e+00 31 29 33
-1.968150e-01 2.421377e-02 -2.906576e+00 105 35 30
-3.378650e-01 1.086108e-01 -3.010235e+00 225 207 196
-3.378650e-01 1.086108e-01 -3.010235e+00 225 207 196
7.071804e-01 -2.757630e-01 -2.529499e+00 191 197 187
-2.805841e-01 2.804785e-01 -3.056131e+00 116 167 196
1.972196e-02 2.255137e-01 -3.050064e+00 222 227 231
4.277096e-01 6.420935e-02 -2.847633e+00 118 177 91
7.032421e-01 6.140835e-02 -2.522181e+00 187 192 185
2.313066e-01 2.412397e-01 -2.695276e+00 82 131 56
-2.139049e-01 5.088837e-01 -3.182579e+00 92 188 217
2.352048e-01 3.139310e-01 -2.792155e+00 165 173 97
5.557661e-01 2.434646e-01 -2.556481e+00 193 212 214
1.206234e-01 5.504268e-01 -3.123015e+00 217 229 233
5.635050e-01 2.917466e-01 -2.571507e+00 145 152 136
-4.257336e-01 7.671166e-01 -3.462262e+00 121 106 103
1.271876e-01 5.952849e-01 -3.139847e+00 214 230 204
1.271347e-01 5.954572e-01 -3.139638e+00 214 230 204
1.161247e-01 6.095964e-01 -3.157024e+00 109 111 98
-3.996279e-01 7.939129e-01 -3.429877e+00 143 133 131
5.850290e-01 3.738150e-01 -2.545599e+00 175 186 172
-3.166150e-01 8.885368e-01 -3.424662e+00 88 70 64
5.941239e-01 4.525806e-01 -2.544653e+00 165 177 163
3.095366e-01 5.896841e-01 -2.786499e+00 87 118 117
3.093479e-01 5.894377e-01 -2.786733e+00 87 118 117
6.012018e-01 4.652213e-01 -2.515829e+00 203 216 211
4.238185e-01 5.559519e-01 -2.689099e+00 157 210 152
5.425934e-01 6.032391e-01 -2.550743e+00 160 173 156
3.386150e-01 8.873371e-01 -2.939319e+00 191 196 189
2.160849e-01 -5.393386e-01 -2.507768e+00 130 136 133
4.458863e-01 -1.611841e-01 -2.716890e+00 13 13 11
-5.407600e-01 3.351106e-02 -3.317937e+00 33 33 27
2.565138e-01 -4.154917e-01 -2.634830e+00 67 82 43
-2.066824e-01 -1.192671e-01 -2.917893e+00 206 208 203
5.272796e-01 1.964201e-01 -2.526482e+00 203 221 220
-2.300149e-01 -4.797089e-01 -2.721814e+00 24 24 15
5.741026e-02 -5.505443e-01 -2.549101e+00 21 32 16
-5.936513e-01 -2.740123e-01 -3.422208e+00 15 17 14
1.620039e-01 -4.996969e-01 -2.587380e+00 114 184 95
-1.203205e-01 7.641798e-01 -3.224247e+00 177 177 169
5.839742e-01 4.929481e-01 -2.565566e+00 133 144 124
-2.671835e-01 -5.247142e-01 -2.738732e+00 245 255 86
4.975497e-02 -3.118965e-01 -2.927220e+00 116 183 96
9.700013e-01 5.785639e-01 -2.421752e+00 201 212 207
2.883714e-01 8.030316e-01 -2.872295e+00 138 142 141
3.741483e-01 7.595786e-01 -2.757994e+00 174 178 169
6.095180e-01 -2.019436e-02 -2.594071e+00 211 220 212
-5.777564e-01 -4.497509e-01 -3.015298e+00 117 127 121
-5.033669e-01 -3.957467e-01 -3.150785e+00 111 112 108
7.200588e-01 -5.439545e-01 -2.496084e+00 53 41 41
-1.743856e-01 -1.933701e-01 -2.895593e+00 27 17 18
6.919131e-01 -1.940474e-01 -2.590675e+00 120 121 107
6.654637e-01 -1.860585e-01 -2.612531e+00 201 206 199
-2.846843e-01 4.953398e-01 -3.220052e+00 199 216 171
-2.115789e-01 4.860387e-01 -3.174092e+00 69 184 224
6.827998e-01 -4.890873e-03 -2.617742e+00 126 123 110
-4.883488e-01 5.342381e-01 -3.334309e+00 193 205 163
8.549367e-01 9.139439e-02 -2.456187e+00 204 204 205
5.415640e-01 8.288787e-01 -2.663846e+00 190 198 194
-2.409738e-01 1.963981e-02 -2.937946e+00 211 216 210
-2.409738e-01 1.963981e-02 -2.937946e+00 211 216 210
6.529968e-01 -1.802542e-01 -2.630933e+00 204 213 199
6.621780e-01 -7.892912e-02 -2.609544e+00 109 107 94
6.621780e-01 -7.892912e-02 -2.609544e+00 109 107 94
9.726601e-01 5.373713e-01 -2.414478e+00 180 185 183
-2.951665e-01 -5.828486e-01 -2.720072e+00 128 137 119
-5.710356e-01 -4.346589e-01 -3.067449e+00 34 37 35
3.160645e-01 -3.305681e-01 -2.490636e+00 99 92 66
-2.321889e-01 3.611947e-02 -2.933600e+00 54 54 56
6.903822e-01 -1.296842e-01 -2.604754e+00 83 86 72
2.240904e-01 2.946356e-01 -2.758458e+00 155 183 106
2.240904e-01 2.946356e-01 -2.758458e+00 155 183 106
2.907611e-01 5.568348e-01 -2.778488e+00 120 172 110
4.538446e-01 5.621677e-01 -2.674088e+00 61 87 88
4.538446e-01 5.621677e-01 -2.674088e+00 61 87 88
4.837219e-01 5.702528e-01 -2.676071e+00 209 226 243
7.444516e-02 8.324933e-01 -3.161043e+00 135 133 127
5.296796e-01 7.784878e-01 -2.721954e+00 162 174 166
3.623721e-01 8.845006e-01 -2.923888e+00 197 204 202
2.145866e+00 -2.009133e+00 -3.157227e+00 77 65 75
-6.080724e-01 -4.579820e-01 -3.016873e+00 46 57 51
-3.445905e-01 -4.945528e-01 -2.804108e+00 106 106 10
-3.574971e-01 -4.865022e-01 -2.826106e+00 103 104 18
2.136009e-01 -6.898690e-01 -2.202606e+00 49 96 28
4.282083e-02 -5.349164e-01 -2.420077e+00 18 92 25
-3.010145e-01 -2.359746e-01 -2.986298e+00 186 149 147
-1.747932e-01 -1.497675e-01 -2.892317e+00 210 212 212
-1.747932e-01 -1.497675e-01 -2.892317e+00 210 212 212
-1.961672e-01 -1.285144e-01 -2.906579e+00 44 49 46
-1.961672e-01 -1.285144e-01 -2.906579e+00 44 49 46
-1.984763e-01 -9.448087e-02 -2.908829e+00 213 218 214
6.272161e-01 -3.271736e-01 -2.621243e+00 206 222 220
-2.218267e-01 2.765682e-02 -2.927794e+00 218 222 219
-2.129606e-01 2.987112e-02 -2.919318e+00 58 60 64
-1.093056e-01 -8.961591e-03 -2.623751e+00 73 108 40
-2.888502e-01 1.253756e-01 -2.975579e+00 167 107 65
-2.888502e-01 1.253756e-01 -2.975579e+00 167 107 65
7.988788e-01 -1.654627e-01 -2.469317e+00 207 208 203
5.575424e-01 -1.896995e-02 -2.614309e+00 40 60 16
-4.214690e-01 4.004455e-01 -3.305498e+00 51 132 155
6.769643e-01 8.112606e-02 -2.592538e+00 186 187 182
6.794247e-01 7.857781e-02 -2.577939e+00 97 98 88
5.253694e-01 1.461650e-01 -2.536342e+00 200 212 208
5.674535e-01 3.330911e-01 -2.624822e+00 128 145 128
5.689130e-01 3.721609e-01 -2.586618e+00 211 224 221
5.730780e-01 4.137269e-01 -2.570199e+00 215 231 228
5.930291e-01 4.778958e-01 -2.513855e+00 195 208 202
5.876844e-01 5.050900e-01 -2.508058e+00 222 235 228
9.583495e-01 5.839307e-01 -2.376033e+00 64 51 64
5.049567e-01 6.831751e-01 -2.562222e+00 212 230 234
2.052923e-01 8.792208e-01 -3.048214e+00 187 192 186
-3.284711e-01 8.928026e-02 -3.005821e+00 208 204 203
-4.445459e-01 1.878137e-01 -3.244580e+00 62 87 68
-5.150139e-01 5.486743e-01 -3.348867e+00 43 159 200
-1.618439e-01 -2.533689e-02 -2.877045e+00 245 40 28
-5.983626e-01 -1.171867e-01 -3.422585e+00 94 153 156
-1.897170e-01 -2.847340e-01 -2.903272e+00 70 7 0
-3.304225e-01 -1.115635e-01 -3.007347e+00 55 55 54
-4.192292e-01 2.277627e-01 -3.230157e+00 69 81 74
-4.192292e-01 2.277627e-01 -3.230157e+00 69 81 74
3.638167e-02 5.049685e-02 6.690115e-02 0 255 0
3.567477e-02 4.978388e-02 1.691124e-02 255 255 0
6.812052e-01 8.994814e-02 -7.455723e-01 255 0 0
6.653967e-01 8.982497e-02 -7.930073e-01 255 255 0
-1.264118e+00 -7.033237e-02 2.673146e-01 0 255 0
-1.246490e+00 -6.748415e-02 2.206120e-01 255 255 0
-2.733373e+00 4.660666e-01 -1.400461e+00 255 0 0
-2.691297e+00 4.605489e-01 -1.426903e+00 255 255 0
-1.978651e+00 3.566612e-01 -8.108676e-01 0 255 0
-1.945737e+00 3.524590e-01 -8.482710e-01 255 255 0
-2.091233e+00 1.387178e+00 -9.126968e-01 255 0 0
-2.057586e+00 1.369891e+00 -9.453927e-01 255 255 0
-1.634149e+00 -1.093055e+00 -1.138088e+00 0 255 0
-1.604140e+00 -1.072623e+00 -1.172468e+00 255 255 0
