ply
format ascii 1.0
element face 0
property list uchar int vertex_indices
element vertex 253
property float x
property float y
property float z
property uchar diffuse_red
property uchar diffuse_green
property uchar diffuse_blue
end_header
-5.573499e-01 5.962616e-01 -3.431431e+00 135 189 173
-3.220077e-01 8.177433e-02 -3.017628e+00 210 207 200
-3.472979e-01 1.310293e-02 -3.024704e+00 207 208 202
-2.908154e-01 6.560939e-01 -3.557417e+00 206 94 130
2.877953e-01 7.637758e-01 -2.775895e+00 208 220 220
-3.424573e-01 -7.798878e-02 -3.031018e+00 23 23 21
-2.960792e-01 -4.776159e-02 -2.987566e+00 23 22 24
-2.960792e-01 -4.776159e-02 -2.987566e+00 23 22 24
-3.111794e-01 1.258007e-02 -2.994552e+00 213 215 209
-2.634385e-01 -4.538065e-03 -2.954904e+00 204 212 204
7.301307e-01 -7.842478e-02 -2.521764e+00 205 225 223
-1.270178e-01 4.634831e-01 -3.144169e+00 190 221 179
-1.270178e-01 4.634831e-01 -3.144169e+00 190 221 179
-1.843944e-01 -1.814772e-01 -2.912520e+00 206 212 212
-3.316104e-01 -4.187495e-03 -3.018264e+00 21 20 22
-3.086509e-01 -1.124007e-02 -3.000768e+00 26 24 27
-2.983682e-01 1.892325e-03 -2.988433e+00 206 205 202
7.326016e-01 -5.427703e-02 -2.518421e+00 74 62 57
-2.678233e-01 -2.915923e-01 -2.972488e+00 217 34 24
7.542498e-01 -6.613487e-02 -2.489221e+00 195 219 214
-2.688473e-01 1.166850e-01 -2.951981e+00 71 38 22
3.376217e-01 7.850125e-01 -2.743801e+00 215 224 225
-3.776537e-01 -1.370878e-01 -3.056348e+00 212 189 53
3.819422e-01 8.504385e-02 -2.869314e+00 87 76 19
-5.927827e-01 6.681469e-01 -3.432027e+00 201 112 134
7.603919e-01 -4.893707e-02 -2.491562e+00 74 65 64
7.603919e-01 -4.893707e-02 -2.491562e+00 74 65 64
-5.267405e-02 5.096335e-01 -2.828832e+00 192 160 171
6.172876e-01 4.714733e-01 -2.494455e+00 225 239 239
4.623436e-01 5.378642e-01 -2.653822e+00 228 243 250
7.815596e-01 3.010043e-01 -2.501295e+00 209 222 219
3.165038e-01 7.351716e-01 -2.829966e+00 93 90 74
3.727651e-01 4.524469e-02 -2.869469e+00 191 232 94
6.434153e-01 -3.018011e-01 -2.632305e+00 178 204 203
6.149771e-01 -2.689192e-01 -2.655875e+00 21 27 28
7.325779e-01 -5.395602e-02 -2.518444e+00 74 62 57
7.534794e-01 2.799382e-01 -2.515543e+00 210 227 224
6.261708e-01 -2.150156e-01 -2.651346e+00 171 200 199
8.111053e-01 -1.743079e-01 -2.464468e+00 193 210 207
7.761881e-01 -5.672499e-02 -2.479521e+00 205 225 223
4.882336e-01 5.141523e-01 -2.651970e+00 217 234 241
-6.341501e-01 -3.862952e-01 -3.143514e+00 25 70 142
6.446996e-01 -2.160246e-01 -2.639595e+00 155 173 167
5.077209e-01 5.161033e-01 -2.654182e+00 10 32 44
2.225339e-01 6.701687e-01 -2.875302e+00 131 133 125
3.448230e-01 7.636177e-01 -2.746000e+00 198 214 211
4.112760e-01 3.456977e-01 -2.624647e+00 13 14 11
-2.915798e-01 -5.223574e-01 -2.774648e+00 238 245 87
-5.091835e-01 7.388059e-01 -3.510407e+00 35 22 16
6.804628e-01 -1.517740e-01 -2.599417e+00 85 81 74
-2.031935e-01 -4.094220e-01 -2.959120e+00 235 41 32
-8.994255e-01 -3.951684e-01 -3.256574e+00 24 24 23
6.292244e-01 -1.483888e-01 -2.628556e+00 187 204 201
6.561750e-01 8.742020e-02 -2.616393e+00 182 203 200
6.661095e-01 3.239485e-01 -2.486652e+00 210 223 222
5.181299e-01 4.987506e-01 -2.666071e+00 191 218 225
4.893540e-01 5.418181e-01 -2.659060e+00 48 58 64
-5.488086e-01 -5.333055e-01 -2.897920e+00 175 124 56
6.927030e-01 -1.331278e-01 -2.593709e+00 77 78 76
6.441085e-01 -1.334343e-01 -2.622927e+00 193 212 210
6.296285e-01 6.873802e-02 -2.615610e+00 200 218 216
7.660065e-01 3.407885e-01 -2.455008e+00 209 224 226
-2.315951e-01 6.488324e-01 -3.540766e+00 57 172 203
4.089206e-01 6.040819e-01 -2.738923e+00 80 57 39
-6.611166e-01 -6.482912e-01 -2.678097e+00 25 26 29
-1.159216e-01 -5.835634e-01 -2.719850e+00 30 45 16
-2.589311e-01 -5.493776e-01 -2.722661e+00 165 188 150
-8.773703e-01 -3.617237e-01 -3.271076e+00 45 45 45
8.989816e-01 -2.658338e-01 -2.491339e+00 111 109 115
9.284906e-01 -2.394529e-01 -2.515103e+00 156 170 168
2.936605e-01 -2.232390e-01 -2.477611e+00 123 199 99
8.303971e-01 -2.120145e-01 -2.467732e+00 191 209 209
6.477023e-01 -9.878913e-02 -2.602449e+00 173 193 191
6.109500e-01 -1.281464e-03 -2.583286e+00 168 184 181
4.372990e-01 -2.326489e-03 -3.437201e+00 31 71 6
5.671303e-01 1.433009e-01 -2.495884e+00 82 75 68
-3.974106e-02 1.821226e-01 -2.911005e+00 60 82 69
-2.497342e-01 1.011981e+00 -3.424154e+00 176 175 180
-4.743278e-01 -6.163350e-01 -2.685751e+00 97 111 121
-1.473237e-01 -5.898875e-01 -2.670013e+00 57 109 41
-4.726659e-01 -5.971012e-01 -2.758756e+00 65 84 82
2.566609e-01 -2.974217e-01 -2.479444e+00 116 181 93
2.679094e-01 -2.730460e-01 -2.470708e+00 80 135 54
2.811690e-01 -2.594648e-01 -2.463956e+00 80 145 61
9.086102e-01 -2.248285e-01 -2.490430e+00 126 129 134
9.120984e-01 -2.091879e-01 -2.500591e+00 169 179 180
6.509191e-01 -1.282891e-01 -2.613136e+00 191 209 205
5.679602e-01 1.511132e-02 -2.564192e+00 198 221 219
-3.267628e-01 3.252346e-02 -3.015304e+00 13 14 12
-2.825952e-01 4.282603e-02 -2.978730e+00 59 57 58
6.612250e-01 1.161979e-01 -2.618245e+00 178 199 191
6.994838e-01 1.382173e-01 -2.551867e+00 174 194 192
6.994838e-01 1.382173e-01 -2.551867e+00 174 194 192
-2.412358e-01 3.058054e-01 -3.212538e+00 34 134 164
3.631043e-01 3.996918e-01 -2.557827e+00 128 207 115
3.385933e-01 4.065307e-01 -2.551381e+00 133 210 116
-1.680932e-01 6.406751e-01 -3.515012e+00 209 107 135
4.914808e-01 4.871565e-01 -2.644848e+00 137 203 134
5.077040e-01 5.164203e-01 -2.654738e+00 10 32 44
6.173376e-01 4.982747e-01 -2.494175e+00 211 222 220
1.150473e-01 8.513473e-01 -3.100562e+00 162 165 158
1.150473e-01 8.513473e-01 -3.100562e+00 162 165 158
4.382217e-01 7.770016e-01 -2.715601e+00 181 191 184
-5.534086e-01 -6.805605e-01 -2.611381e+00 142 152 151
-1.325490e-01 -5.987278e-01 -2.679132e+00 102 180 92
-5.908871e-01 -5.621358e-01 -2.855405e+00 44 70 66
6.427716e-01 -4.460983e-01 -2.575209e+00 107 131 135
2.339766e-01 -3.435829e-01 -2.475558e+00 80 130 49
6.333530e-01 -3.217632e-01 -2.616491e+00 55 73 73
3.435752e-01 -3.041929e-01 -2.483859e+00 61 107 43
3.100828e-01 -2.768132e-01 -2.479778e+00 71 133 50
-1.762985e-01 -1.826693e-01 -2.895005e+00 217 222 213
6.555740e-01 -1.151914e-01 -2.609038e+00 112 118 114
6.555740e-01 -1.151914e-01 -2.609038e+00 112 118 114
-3.254301e-01 -1.057428e-01 -3.010306e+00 34 36 33
-2.733368e-01 1.480841e-01 -2.930323e+00 134 95 81
-4.339705e-01 3.360273e-01 -3.325053e+00 135 170 191
5.077185e-01 3.352761e-01 -2.676916e+00 163 212 132
6.739251e-01 3.277838e-01 -2.481737e+00 219 231 231
6.789564e-01 3.386904e-01 -2.481228e+00 203 217 218
7.855190e-01 3.416355e-01 -2.457524e+00 167 179 179
3.664937e-01 3.752799e-01 -2.578144e+00 94 80 35
4.392577e-02 4.219688e-01 -2.386670e+00 203 156 172
4.402115e-01 7.653525e-01 -2.723339e+00 206 218 214
4.402115e-01 7.653525e-01 -2.723339e+00 206 218 214
-3.862541e-01 9.660183e-01 -3.490616e+00 55 28 21
6.907880e-01 -5.715458e-01 -2.519064e+00 176 194 194
8.988248e-01 6.030632e-02 -2.447928e+00 93 91 84
-5.170582e-01 2.658351e-01 -3.366023e+00 47 61 46
2.345727e-01 7.055408e-01 -2.822732e+00 204 215 215
7.434916e-01 -5.438291e-01 -2.487325e+00 81 76 73
6.829140e-01 -1.545159e-01 -2.607647e+00 85 81 74
-6.314107e-01 1.458686e-01 -3.457870e+00 182 188 156
8.911892e-01 3.606423e-01 -2.445885e+00 111 84 75
4.306307e-01 8.094491e-01 -2.695270e+00 214 225 225
4.306307e-01 8.094491e-01 -2.695270e+00 214 225 225
-2.568205e-01 -1.398795e-01 -2.947246e+00 155 161 158
-2.692936e-01 1.160185e-01 -2.948246e+00 71 38 22
-3.665288e-01 2.516409e-01 -3.167154e+00 68 101 75
-3.255869e-01 -7.094307e-01 -2.480381e+00 45 27 17
-1.860323e-01 -1.601971e-01 -2.893533e+00 215 217 213
4.679174e-01 1.288226e-01 -2.849071e+00 94 83 15
8.862550e-01 3.226332e-01 -2.456054e+00 204 217 217
9.358737e-01 3.533088e-01 -2.448325e+00 197 209 206
1.082537e+00 4.480613e-01 -2.461073e+00 171 179 182
1.066546e+00 4.880762e-01 -2.429624e+00 177 181 184
9.678205e-01 5.274237e-01 -2.407730e+00 163 163 164
-4.590887e-01 -6.798484e-01 -2.518638e+00 31 36 40
4.884625e-01 5.410068e-01 -2.653732e+00 48 58 64
-3.249290e-01 -7.554512e-01 -2.432391e+00 170 178 165
7.194163e-01 -6.843303e-01 -2.506114e+00 164 183 190
6.787200e-01 -5.832336e-01 -2.513146e+00 198 222 228
-2.321120e-01 -1.013807e-01 -2.928558e+00 28 22 24
-2.487904e-01 -3.327042e-02 -2.949090e+00 29 26 26
-2.487904e-01 -3.327042e-02 -2.949090e+00 29 26 26
-2.797519e-01 -2.283235e-02 -2.977361e+00 25 24 25
4.255973e-01 2.690689e-01 -2.640191e+00 144 215 123
-4.066144e-01 3.359072e-01 -3.332862e+00 173 64 101
-3.476276e-01 4.975677e-01 -3.121149e+00 211 76 123
-3.476276e-01 4.975677e-01 -3.121149e+00 211 76 123
6.363235e-01 8.441618e-01 -2.580078e+00 188 199 202
-2.952461e-01 -7.619920e-01 -2.402213e+00 135 131 128
-4.701317e-01 -7.641621e-01 -2.508823e+00 135 130 122
-3.956709e-01 -4.462425e-01 -2.915827e+00 47 54 5
-1.874609e-01 -2.978023e-01 -2.898466e+00 48 9 10
-1.806658e-01 -2.711785e-01 -2.896428e+00 51 3 1
-2.856712e-01 -2.736252e-01 -2.985194e+00 41 27 21
6.665945e-01 -2.086806e-01 -2.632937e+00 172 188 185
6.665945e-01 -2.086806e-01 -2.632937e+00 172 188 185
-1.631469e-01 -1.725249e-01 -2.879195e+00 43 5 2
-1.594283e-01 -1.527190e-01 -2.876513e+00 39 9 5
-1.548373e-01 -1.278905e-01 -2.872105e+00 48 10 9
-3.771343e-01 -1.397428e-01 -3.059029e+00 212 189 53
-1.927087e-01 -1.236103e-01 -2.904098e+00 21 20 21
-3.594919e-01 -1.168289e-01 -3.036926e+00 52 9 4
-3.705382e-01 -9.691245e-02 -3.043491e+00 203 198 195
-2.137238e-01 -9.144934e-02 -2.917329e+00 213 216 211
-2.766416e-01 -8.901095e-02 -2.963749e+00 19 21 20
-5.496964e-01 -1.032743e-01 -3.360260e+00 90 158 98
-1.566050e-01 -3.631367e-02 -2.870567e+00 242 40 28
-1.523757e-01 -1.396873e-02 -2.866253e+00 241 43 32
-3.313447e-01 -3.515737e-03 -3.015769e+00 21 20 22
-2.467234e-01 1.808007e-02 -3.100373e+00 211 215 211
7.304242e-01 9.942853e-02 -2.490171e+00 179 202 200
-4.897097e-01 1.348304e-01 -3.303116e+00 49 108 75
5.306090e-01 1.366873e-01 -2.844681e+00 188 225 87
5.306090e-01 1.366873e-01 -2.844681e+00 188 225 87
-3.697167e-01 2.194306e-01 -3.222996e+00 58 71 58
-2.041527e-01 5.870756e-01 -3.203157e+00 62 175 201
-4.214241e-01 -7.302334e-01 -2.511523e+00 166 172 158
6.805014e-01 -6.178852e-01 -2.508756e+00 57 67 75
-1.804878e-01 -2.801617e-01 -2.903093e+00 70 4 2
-2.239683e-01 -2.740887e-01 -2.929538e+00 173 129 129
-2.317502e-01 -1.646523e-01 -2.932887e+00 212 211 207
-2.166395e-01 -1.490439e-01 -2.919116e+00 26 22 21
6.554329e-01 -1.293032e-01 -2.632362e+00 191 209 205
-1.786485e-01 -1.366970e-01 -2.897816e+00 210 220 210
-2.229892e-01 -1.238515e-01 -2.928787e+00 209 210 204
-1.775456e-01 -1.185631e-01 -2.885368e+00 16 16 20
-2.061843e-01 -1.132349e-01 -2.910859e+00 29 30 30
-2.061843e-01 -1.132349e-01 -2.910859e+00 29 30 30
-2.526532e-01 -1.010012e-01 -2.949252e+00 30 28 28
-1.943177e-01 -8.563103e-02 -2.901811e+00 18 20 22
-1.943177e-01 -8.563103e-02 -2.901811e+00 18 20 22
-3.001026e-01 -8.859845e-02 -2.987921e+00 14 14 14
-3.224508e-01 -7.468202e-02 -3.004154e+00 29 24 28
-3.224508e-01 -7.468202e-02 -3.004154e+00 29 24 28
-1.607953e-01 -5.575101e-02 -2.880152e+00 28 19 17
-1.890688e-01 -2.992271e-02 -2.890456e+00 226 35 29
-2.111242e-01 -2.260272e-02 -2.909704e+00 231 39 32
-1.881149e-01 -2.183706e-04 -2.896137e+00 237 43 36
-1.881149e-01 -2.183706e-04 -2.896137e+00 237 43 36
-1.656145e-01 9.257323e-03 -2.866069e+00 107 7 0
-2.805718e-01 2.559095e-02 -2.969607e+00 218 219 217
-6.355128e-01 1.421941e-01 -3.477156e+00 184 189 159
-6.355128e-01 1.421941e-01 -3.477156e+00 184 189 159
8.122000e-01 3.522658e-01 -2.420820e+00 197 208 212
-9.461430e-02 5.660707e-01 -3.136669e+00 67 183 204
4.661956e-01 5.578927e-01 -2.662219e+00 52 79 88
9.853683e-02 8.536154e-01 -3.137256e+00 194 197 188
-2.547786e-01 -2.587901e-01 -3.040128e+00 22 19 19
6.153390e-01 -2.192869e-01 -2.670334e+00 69 91 88
-2.533582e-01 -1.590537e-01 -2.949584e+00 216 215 213
-2.817106e-01 -1.350842e-01 -2.971716e+00 24 25 23
-2.817106e-01 -1.350842e-01 -2.971716e+00 24 25 23
-1.691845e-01 -1.251863e-01 -2.886774e+00 36 35 37
-1.628904e-01 -1.129131e-01 -2.879124e+00 222 222 221
-5.534699e-01 -1.247961e-01 -3.352650e+00 20 61 22
-3.250739e-01 -1.054521e-01 -3.007268e+00 34 36 33
-1.545954e-01 -6.964943e-02 -2.872100e+00 207 213 209
-1.747919e-01 -6.349366e-02 -2.888610e+00 215 216 218
-2.031225e-01 -5.489148e-02 -2.909901e+00 213 216 206
-2.031225e-01 -5.489148e-02 -2.909901e+00 213 216 206
-2.670716e-01 -3.767998e-02 -2.961345e+00 198 204 200
-2.670716e-01 -3.767998e-02 -2.961345e+00 198 204 200
-1.394574e-01 -3.065098e-02 -2.857734e+00 123 0 0
-1.394574e-01 -3.065098e-02 -2.857734e+00 123 0 0
-3.014413e-01 -2.565811e-02 -2.990508e+00 216 221 217
-2.247630e-01 -1.998533e-02 -2.919983e+00 224 35 24
-1.664291e-01 2.157528e-02 -2.891457e+00 247 41 40
-3.224364e-01 5.574325e-02 -3.007790e+00 56 58 54
-4.266996e-01 3.042411e-01 -3.037031e+00 121 176 191
3.176906e-01 5.896719e-01 -2.773768e+00 72 103 101
4.696831e-02 6.096373e-01 -1.719704e+00 178 170 179
-5.918847e-01 6.671955e-01 -3.431795e+00 192 113 126
-2.053498e-01 5.871846e-01 -3.189773e+00 55 170 198
-4.514312e-01 2.419800e-01 -3.266366e+00 75 92 82
3.751682e-02 2.306005e-02 -4.309004e-02 0 255 0
3.689060e-02 2.267160e-02 -9.308461e-02 255 255 0
6.647796e-01 6.626770e-02 -7.632777e-01 255 0 0
6.493288e-01 6.653177e-02 -8.108298e-01 255 255 0
-1.057033e+00 -4.993567e-02 9.524081e-02 0 255 0
-1.041285e+00 -4.728278e-02 4.785964e-02 255 255 0
