ply
format ascii 1.0
element face 0
property list uchar int vertex_indices
element vertex 919
property float x
property float y
property float z
property uchar diffuse_red
property uchar diffuse_green
property uchar diffuse_blue
end_header
6.235833e-01 7.573287e-02 -2.630629e+00 200 218 216
7.651503e-01 3.489106e-01 -2.467424e+00 209 224 226
-2.311286e-01 6.344732e-01 -3.508429e+00 57 172 203
4.023324e-01 6.069150e-01 -2.749675e+00 80 57 39
-6.628311e-01 -6.389522e-01 -2.675521e+00 25 26 29
-1.186267e-01 -5.712419e-01 -2.720211e+00 30 45 16
-2.602004e-01 -5.370418e-01 -2.721695e+00 165 188 150
-8.660227e-01 -3.490266e-01 -3.249284e+00 45 45 45
9.021075e-01 -2.607802e-01 -2.508321e+00 111 109 115
9.319046e-01 -2.343918e-01 -2.532735e+00 156 170 168
2.890837e-01 -2.145122e-01 -2.490871e+00 123 199 99
8.313228e-01 -2.056989e-01 -2.483547e+00 191 209 209
6.422677e-01 -9.142146e-02 -2.618121e+00 173 193 191
6.053271e-01 6.065837e-03 -2.598399e+00 168 184 181
4.201484e-01 2.245574e-03 -3.426070e+00 31 71 6
5.626509e-01 1.506675e-01 -2.510482e+00 82 75 68
-4.356967e-02 1.856921e-01 -2.910417e+00 60 82 69
-2.508605e-01 9.953166e-01 -3.405609e+00 176 175 180
-4.749378e-01 -6.051554e-01 -2.683578e+00 97 111 121
-1.497694e-01 -5.781364e-01 -2.671183e+00 57 109 41
-4.724259e-01 -5.848605e-01 -2.754972e+00 65 84 82
2.522628e-01 -2.885000e-01 -2.491915e+00 116 181 93
2.635288e-01 -2.642011e-01 -2.483560e+00 80 135 54
2.768136e-01 -2.506833e-01 -2.477077e+00 80 145 61
9.116563e-01 -2.193494e-01 -2.507259e+00 126 129 134
9.149033e-01 -2.035788e-01 -2.517607e+00 169 179 180
6.454199e-01 -1.209366e-01 -2.628808e+00 191 209 205
5.623490e-01 2.252312e-02 -2.578999e+00 198 221 219
-3.240944e-01 3.868063e-02 -3.004057e+00 13 14 12
-2.818754e-01 4.848092e-02 -2.972099e+00 59 57 58
6.554263e-01 1.230558e-01 -2.633371e+00 178 199 191
6.952684e-01 1.454558e-01 -2.566817e+00 174 194 192
6.952684e-01 1.454558e-01 -2.566817e+00 174 194 192
-2.429671e-01 3.051640e-01 -3.205099e+00 34 134 164
3.580054e-01 4.051746e-01 -2.571126e+00 128 207 115
3.336292e-01 4.119943e-01 -2.564678e+00 133 210 116
-1.694977e-01 6.270430e-01 -3.484898e+00 209 107 135
4.856103e-01 4.919637e-01 -2.657593e+00 137 203 134
5.018868e-01 5.211779e-01 -2.667429e+00 10 32 44
6.147961e-01 5.057419e-01 -2.507749e+00 211 222 220
1.083029e-01 8.446037e-01 -3.098231e+00 162 165 158
1.083029e-01 8.446037e-01 -3.098231e+00 162 165 158
4.330863e-01 7.812970e-01 -2.727475e+00 181 191 184
-5.555701e-01 -6.715430e-01 -2.609708e+00 142 152 151
-1.351197e-01 -5.868759e-01 -2.680157e+00 102 180 92
-5.889411e-01 -5.494046e-01 -2.848834e+00 44 70 66
6.397079e-01 -4.399704e-01 -2.589922e+00 107 131 135
2.297582e-01 -3.345958e-01 -2.487502e+00 80 130 49
6.285145e-01 -3.146352e-01 -2.631763e+00 55 73 73
3.390775e-01 -2.955874e-01 -2.497074e+00 61 107 43
3.055663e-01 -2.680818e-01 -2.492883e+00 71 133 50
-1.777665e-01 -1.729446e-01 -2.891665e+00 217 222 213
6.501568e-01 -1.078571e-01 -2.624807e+00 112 118 114
6.501568e-01 -1.078571e-01 -2.624807e+00 112 118 114
-3.237804e-01 -9.730879e-02 -3.001111e+00 34 36 33
-2.905038e-01 1.540259e-01 -2.981238e+00 134 95 81
-4.284038e-01 3.326167e-01 -3.301858e+00 135 170 191
5.007238e-01 3.403039e-01 -2.689633e+00 163 212 132
6.711714e-01 3.352661e-01 -2.495292e+00 219 231 231
6.763254e-01 3.462044e-01 -2.494700e+00 203 217 218
7.849731e-01 3.498381e-01 -2.469765e+00 167 179 179
3.610646e-01 3.806201e-01 -2.591143e+00 94 80 35
4.099307e-02 4.290598e-01 -2.401241e+00 203 156 172
4.348810e-01 7.693878e-01 -2.735040e+00 206 218 214
4.348810e-01 7.693878e-01 -2.735040e+00 206 218 214
-3.787821e-01 9.374218e-01 -3.426628e+00 55 28 21
6.896542e-01 -5.670869e-01 -2.529483e+00 176 194 194
8.981260e-01 6.777176e-02 -2.453827e+00 93 91 84
-5.156177e-01 2.535322e-01 -3.322081e+00 47 61 46
2.284445e-01 7.058161e-01 -2.831550e+00 204 215 215
7.438327e-01 -5.401217e-01 -2.497709e+00 81 76 73
6.774360e-01 -1.449125e-01 -2.615635e+00 85 81 74
-6.112955e-01 1.524073e-01 -3.413150e+00 182 188 156
8.943532e-01 3.717557e-01 -2.459980e+00 111 84 75
4.265109e-01 8.153495e-01 -2.709524e+00 214 225 225
4.263581e-01 8.174740e-01 -2.708010e+00 214 225 225
-2.572528e-01 -1.309465e-01 -2.954228e+00 155 161 158
-2.669626e-01 1.200613e-01 -2.959855e+00 71 38 22
-3.627030e-01 2.510680e-01 -3.146331e+00 68 101 75
-3.347365e-01 -7.134499e-01 -2.521067e+00 45 27 17
-1.867882e-01 -1.527845e-01 -2.904404e+00 215 217 213
4.587227e-01 1.329209e-01 -2.853620e+00 94 83 15
8.909222e-01 3.381042e-01 -2.481679e+00 204 217 217
9.380643e-01 3.629493e-01 -2.454764e+00 197 209 206
1.090352e+00 4.602024e-01 -2.463731e+00 171 179 182
1.077589e+00 4.995408e-01 -2.433590e+00 177 181 184
9.760848e-01 5.411488e-01 -2.416590e+00 163 163 164
-4.699191e-01 -6.831197e-01 -2.559942e+00 31 36 40
4.830527e-01 5.460770e-01 -2.668191e+00 48 58 64
-3.350639e-01 -7.632804e-01 -2.477962e+00 170 178 165
7.208770e-01 -6.825467e-01 -2.516448e+00 164 183 190
6.780115e-01 -5.792027e-01 -2.524764e+00 198 222 228
-2.326436e-01 -9.340522e-02 -2.935778e+00 28 22 24
-2.496185e-01 -2.752861e-02 -2.950769e+00 29 26 26
-2.502807e-01 -2.805174e-02 -2.949791e+00 29 26 26
-2.800450e-01 -1.650754e-02 -2.974413e+00 25 24 25
4.194490e-01 2.745977e-01 -2.656715e+00 144 215 123
-3.987971e-01 3.318144e-01 -3.291080e+00 173 64 101
-3.453131e-01 4.921876e-01 -3.107908e+00 211 76 123
-3.453131e-01 4.921876e-01 -3.107908e+00 211 76 123
6.372145e-01 8.566260e-01 -2.596142e+00 188 199 202
-3.051859e-01 -7.711898e-01 -2.449345e+00 135 131 128
-4.821322e-01 -7.699122e-01 -2.549103e+00 135 130 122
-3.952089e-01 -4.334525e-01 -2.920027e+00 47 54 5
-1.882550e-01 -2.877363e-01 -2.907558e+00 48 9 10
-1.829847e-01 -2.610871e-01 -2.904252e+00 51 3 1
-2.852521e-01 -2.617405e-01 -2.977829e+00 41 27 21
6.587616e-01 -2.003690e-01 -2.638004e+00 172 188 185
6.587616e-01 -2.003690e-01 -2.638004e+00 172 188 185
-1.655769e-01 -1.626901e-01 -2.887048e+00 43 5 2
-1.619729e-01 -1.456211e-01 -2.885883e+00 39 9 5
-1.575129e-01 -1.198813e-01 -2.881316e+00 48 10 9
-3.738422e-01 -1.340967e-01 -3.046903e+00 212 189 53
-1.953444e-01 -1.162971e-01 -2.909418e+00 21 20 21
-3.576933e-01 -1.081745e-01 -3.028699e+00 52 9 4
-3.659153e-01 -8.497088e-02 -3.040202e+00 203 198 195
-2.155450e-01 -8.144470e-02 -2.923121e+00 213 216 211
-2.766080e-01 -8.290805e-02 -2.967284e+00 19 21 20
-5.362249e-01 -9.454478e-02 -3.305734e+00 90 158 98
-1.596840e-01 -2.910746e-02 -2.880894e+00 242 40 28
-1.535786e-01 -7.765656e-03 -2.881079e+00 241 43 32
-3.317673e-01 1.470120e-03 -3.009875e+00 21 20 22
-2.462151e-01 2.401165e-02 -3.084365e+00 211 215 211
7.270481e-01 1.066348e-01 -2.502201e+00 179 202 200
-4.791500e-01 1.367990e-01 -3.265637e+00 49 108 75
5.184027e-01 1.416250e-01 -2.838739e+00 188 225 87
5.177983e-01 1.418895e-01 -2.838370e+00 188 225 87
-3.632023e-01 2.231288e-01 -3.201734e+00 58 71 58
-2.013796e-01 5.779671e-01 -3.181325e+00 62 175 201
-4.319961e-01 -7.346140e-01 -2.552472e+00 166 172 158
6.804499e-01 -6.145889e-01 -2.520571e+00 57 67 75
-1.837343e-01 -2.711672e-01 -2.903466e+00 70 4 2
-2.255501e-01 -2.636072e-01 -2.934173e+00 173 129 129
-2.330642e-01 -1.552415e-01 -2.936672e+00 212 211 207
-2.180959e-01 -1.396113e-01 -2.925781e+00 26 22 21
6.474566e-01 -1.213773e-01 -2.638203e+00 191 209 205
-1.828138e-01 -1.283493e-01 -2.901305e+00 210 220 210
-2.249517e-01 -1.163682e-01 -2.932079e+00 209 210 204
-1.791421e-01 -1.108154e-01 -2.897832e+00 16 16 20
-2.077510e-01 -1.054848e-01 -2.917980e+00 29 30 30
-2.076487e-01 -1.054664e-01 -2.918044e+00 29 30 30
-2.531422e-01 -9.367716e-02 -2.951663e+00 30 28 28
-1.957835e-01 -7.696981e-02 -2.909976e+00 18 20 22
-1.956816e-01 -7.662143e-02 -2.909792e+00 18 20 22
-2.996738e-01 -8.148943e-02 -2.986950e+00 14 14 14
-3.209917e-01 -6.665480e-02 -3.002151e+00 29 24 28
-3.211559e-01 -6.672569e-02 -3.001862e+00 29 24 28
-1.639543e-01 -4.841180e-02 -2.888845e+00 28 19 17
-1.907394e-01 -2.348353e-02 -2.903638e+00 226 35 29
-2.118296e-01 -1.637106e-02 -2.919617e+00 231 39 32
-1.906777e-01 4.026212e-03 -2.904858e+00 237 43 36
-1.905583e-01 3.944057e-03 -2.904725e+00 237 43 36
-1.648753e-01 1.448601e-02 -2.886058e+00 107 7 0
-2.806493e-01 3.099049e-02 -2.971549e+00 218 219 217
-6.178726e-01 1.426517e-01 -3.414894e+00 184 189 159
-6.178726e-01 1.426517e-01 -3.414894e+00 184 189 159
8.135463e-01 3.617295e-01 -2.433563e+00 197 208 212
-9.736965e-02 5.584253e-01 -3.116475e+00 67 183 204
4.607393e-01 5.628836e-01 -2.676732e+00 52 79 88
9.908423e-02 8.395758e-01 -3.125108e+00 194 197 188
-2.574322e-01 -2.426494e-01 -2.987106e+00 22 19 19
6.066335e-01 -2.105154e-01 -2.674628e+00 69 91 88
-2.535702e-01 -1.498825e-01 -2.952615e+00 216 215 213
-2.813137e-01 -1.257850e-01 -2.972950e+00 24 25 23
-2.818898e-01 -1.259379e-01 -2.972332e+00 24 25 23
-1.759080e-01 -1.130042e-01 -2.897870e+00 36 35 37
-1.652459e-01 -1.039783e-01 -2.888782e+00 222 222 221
-5.404148e-01 -1.143681e-01 -3.306167e+00 20 61 22
-3.232441e-01 -9.693807e-02 -3.003293e+00 34 36 33
-1.580491e-01 -6.410270e-02 -2.882115e+00 207 213 209
-1.779196e-01 -5.780887e-02 -2.896173e+00 215 216 218
-2.053760e-01 -4.893309e-02 -2.916115e+00 213 216 206
-2.056516e-01 -4.926756e-02 -2.915864e+00 213 216 206
-2.668410e-01 -3.249178e-02 -2.962033e+00 198 204 200
-2.671364e-01 -3.237430e-02 -2.961123e+00 198 204 200
-1.423406e-01 -2.390063e-02 -2.870970e+00 123 0 0
-1.423406e-01 -2.390063e-02 -2.870970e+00 123 0 0
-3.014756e-01 -1.941348e-02 -2.987967e+00 216 221 217
-2.262507e-01 -1.356564e-02 -2.926993e+00 224 35 24
-1.712754e-01 2.646068e-02 -2.882479e+00 247 41 40
-3.227403e-01 5.997042e-02 -3.002096e+00 56 58 54
-4.239259e-01 3.104715e-01 -3.091768e+00 121 176 191
3.110337e-01 5.915256e-01 -2.784098e+00 72 103 101
4.749777e-02 6.460047e-01 -1.777865e+00 178 170 179
-5.761185e-01 6.515295e-01 -3.390659e+00 192 113 126
-2.035942e-01 5.788744e-01 -3.170407e+00 55 170 198
-4.419174e-01 2.398326e-01 -3.242662e+00 75 92 82
-1.468116e-01 6.717424e-01 -3.272549e+00 215 226 230
-5.035271e-01 2.684994e-01 -3.341360e+00 47 61 46
-2.725602e-01 -5.062233e-02 -2.964126e+00 79 83 73
-3.970959e-01 -4.207485e-01 -2.952427e+00 235 240 76
-2.334545e-01 -9.375782e-02 -2.934937e+00 28 22 24
-3.755301e-01 3.137008e-01 -3.112264e+00 173 64 101
-3.373028e-01 6.119080e-01 -3.293210e+00 49 168 200
-1.947659e-01 -1.156762e-01 -2.910625e+00 21 20 21
-4.002349e-01 3.039937e-01 -2.987668e+00 34 96 129
-3.111367e-01 -2.512057e-01 -2.995734e+00 39 24 21
-2.179690e-01 -1.397111e-01 -2.925988e+00 26 22 21
-1.910761e-01 -9.808811e-02 -2.907522e+00 215 219 215
-2.807734e-01 3.089796e-02 -2.971494e+00 218 219 217
-3.475916e-01 3.086261e-01 -3.263234e+00 106 97 125
-1.163829e-01 5.630800e-01 -3.126958e+00 120 189 202
9.223956e-02 8.432602e-01 -3.119454e+00 194 197 188
7.182255e-01 -2.397025e-01 -2.536953e+00 170 192 189
7.182605e-01 -2.407137e-01 -2.535905e+00 170 192 189
-5.204719e-01 -2.303650e-01 -3.297795e+00 94 132 92
-1.769418e-01 -1.737101e-01 -2.898891e+00 217 222 213
-5.329299e-01 -7.261109e-02 -3.300878e+00 22 32 21
-1.705474e-01 -2.034434e-02 -2.890281e+00 135 12 6
-2.329502e-01 3.463801e-02 -2.934662e+00 58 58 61
-1.728332e-01 2.750138e-01 -3.167856e+00 187 133 160
-2.431956e-01 2.864862e-01 -3.207365e+00 101 99 137
8.040178e-01 5.251366e-01 -2.540109e+00 224 233 231
7.936317e-01 -3.321711e-01 -2.601863e+00 194 196 187
4.242512e-01 5.082896e-01 -2.700226e+00 132 207 112
-4.006958e-01 -4.943923e-01 -2.894954e+00 71 61 20
-7.593446e-02 6.601414e-01 -3.227160e+00 222 232 234
5.224579e-01 6.243736e-01 -2.644988e+00 38 37 33
-4.605892e-01 -3.078855e-01 -3.158315e+00 89 49 18
-3.234772e-01 -1.951276e-01 -3.000537e+00 17 18 17
-3.473732e-01 -6.242526e-02 -3.034996e+00 23 23 25
-6.320181e-01 -4.571224e-02 -3.436270e+00 181 186 148
-3.951824e-01 9.519780e-02 -3.114727e+00 107 58 31
-1.738261e-01 9.438626e-02 -2.913254e+00 220 224 219
2.876231e-01 6.612340e-01 -2.825786e+00 33 30 23
-1.952779e-01 -9.151340e-03 -2.907253e+00 224 50 43
-4.550501e-01 1.170067e-01 -3.248393e+00 100 183 124
-3.128241e-01 -4.947784e-01 -2.798556e+00 233 241 80
-6.421021e-01 -1.979550e-01 -3.453707e+00 85 150 167
-4.176711e-01 7.248691e-01 -3.444477e+00 174 170 164
8.753670e-02 7.408918e-01 -3.137231e+00 199 203 197
4.943066e-01 6.476688e-01 -2.786371e+00 56 47 39
4.966893e-01 6.487223e-01 -2.789402e+00 56 47 39
4.866838e-01 7.205169e-01 -2.807956e+00 207 224 220
-4.630806e-01 -3.831832e-01 -3.041718e+00 225 231 72
-4.732568e-01 -3.804802e-01 -3.023289e+00 225 231 72
-5.455400e-01 -1.922432e-01 -3.316083e+00 83 160 101
-5.106898e-01 -1.360100e-01 -3.286923e+00 30 31 28
6.900340e-01 -1.470114e-01 -2.623397e+00 67 47 39
-4.582217e-01 7.063754e-02 -3.256466e+00 92 178 119
-4.593508e-01 7.139771e-02 -3.255244e+00 92 178 119
4.597705e-01 8.930126e-02 -2.828005e+00 204 237 103
5.867924e-01 4.455684e-01 -2.611736e+00 196 216 214
-2.227932e-01 1.066250e+00 -3.446270e+00 50 21 14
-2.794811e-01 -7.159443e-01 -2.500272e+00 40 28 19
3.735265e-02 -6.511085e-01 -2.535388e+00 26 39 17
-5.383413e-01 -5.111184e-01 -2.884535e+00 172 133 55
-4.568744e-01 -4.452976e-01 -2.994760e+00 100 78 16
-4.076450e-01 -4.248402e-01 -2.959120e+00 231 237 76
-5.900236e-01 -3.976620e-01 -3.090466e+00 56 56 54
-5.427232e-01 -2.438148e-01 -3.310961e+00 30 42 29
6.817622e-01 -2.829903e-01 -2.601937e+00 208 215 208
-4.780500e-01 -7.606606e-02 -3.271905e+00 114 166 102
-4.780500e-01 -7.606606e-02 -3.271905e+00 114 166 102
-1.691742e-01 -7.761371e-02 -2.890667e+00 137 142 138
-1.689987e-01 -7.776494e-02 -2.891009e+00 137 142 138
7.080411e-01 -1.164601e-01 -2.586068e+00 172 185 176
-1.280014e-01 2.505569e-02 -2.825725e+00 251 42 38
-5.023187e-01 8.931837e-02 -3.282329e+00 36 47 36
-2.956263e-01 8.001628e-02 -2.982153e+00 213 219 212
-5.488938e-01 1.016269e-01 -2.091480e+00 172 168 143
2.570187e-01 3.455930e-01 -2.794133e+00 94 0 0
1.184892e-02 6.279903e-01 -3.159483e+00 175 174 158
1.184892e-02 6.279903e-01 -3.159483e+00 175 174 158
-3.371628e-01 7.434180e-01 -3.311271e+00 212 217 223
3.147129e-01 7.452372e-01 -2.765133e+00 128 121 106
-2.430657e-01 -7.394451e-01 -2.488691e+00 143 151 138
-4.340239e-01 -5.326470e-01 -2.813612e+00 31 44 37
-5.160771e-01 -4.719999e-01 -2.875427e+00 43 48 48
-7.526669e-01 -3.887828e-01 -3.225660e+00 108 120 111
-6.551665e-01 -3.915731e-01 -3.117818e+00 49 52 60
6.466085e-01 -4.966294e-01 -2.546237e+00 201 210 211
-5.115564e-01 -2.919520e-01 -3.295536e+00 69 156 108
-5.141072e-01 -2.920413e-01 -3.293009e+00 69 156 108
-5.103126e-01 -2.921756e-01 -3.295331e+00 69 156 108
-5.488432e-01 -2.850515e-01 -3.323350e+00 68 153 108
-3.183527e-01 -3.347416e-02 -3.001382e+00 210 212 206
-3.199950e-01 4.892806e-02 -3.000243e+00 197 197 197
-4.016388e-01 2.142936e-01 -3.222201e+00 160 171 164
-4.011069e-01 2.143320e-01 -3.222211e+00 160 171 164
7.021283e-01 6.589215e-02 -2.546838e+00 209 221 212
5.542400e-01 1.162258e-01 -2.828895e+00 12 28 10
7.965686e-01 3.342304e-01 -2.486819e+00 125 102 94
7.965686e-01 3.342304e-01 -2.486819e+00 125 102 94
5.938413e-01 4.648216e-01 -2.566869e+00 137 140 123
-5.876393e-01 -2.448030e-01 -3.340357e+00 88 155 95
-5.517324e-01 -1.480437e-01 -3.316241e+00 37 67 43
7.250359e-01 -1.413789e-01 -2.559227e+00 204 214 206
-2.821362e-01 -1.837487e-02 -2.972870e+00 28 27 31
7.293786e-01 -1.209326e-01 -2.541702e+00 140 139 132
7.290329e-01 -1.209517e-01 -2.541300e+00 140 139 132
-2.081661e-01 1.270250e-02 -2.920349e+00 57 36 40
7.230037e-01 -4.389239e-02 -2.524169e+00 94 69 59
-5.894219e-01 1.519063e-01 -3.404993e+00 201 63 107
-4.904753e-01 1.607567e-01 -3.272460e+00 81 165 112
6.943708e-01 5.235557e-03 -2.584624e+00 197 205 194
-4.140310e-01 1.845673e-01 -3.232746e+00 61 83 68
-4.177654e-01 1.857050e-01 -3.230374e+00 61 83 68
-4.034165e-01 2.470440e-01 -3.223421e+00 65 88 74
5.738606e-01 2.644694e-01 -2.552578e+00 119 129 120
-1.821101e-01 5.106779e-01 -3.370065e+00 189 218 177
-5.189854e-01 5.510432e-01 -3.348399e+00 45 158 195
-5.442033e-01 6.454412e-01 -3.362047e+00 171 148 153
5.867167e-01 5.324712e-01 -2.517877e+00 217 231 232
1.374552e-01 7.411833e-01 -3.127100e+00 203 213 207
1.498654e-01 7.461233e-01 -3.145261e+00 203 213 207
8.125681e-02 8.383824e-01 -3.153159e+00 150 149 144
1.375353e-01 8.468977e-01 -3.097579e+00 195 198 191
5.278884e-01 8.164240e-01 -2.686253e+00 178 185 178
-3.449455e-01 -7.365829e-01 -2.501848e+00 151 159 146
-7.033918e-01 -7.151237e-01 -2.718045e+00 128 126 117
-6.206196e-01 -4.985475e-01 -2.962594e+00 177 198 192
-6.203411e-01 -4.994753e-01 -2.967428e+00 177 198 192
-3.900569e-01 -4.588898e-01 -2.865614e+00 44 57 20
6.603918e-01 -5.187535e-01 -2.544809e+00 207 214 214
-3.563590e-01 -1.082223e-01 -3.029529e+00 60 18 15
7.068795e-01 -1.978736e-01 -2.598723e+00 137 142 133
-1.440001e-01 -5.794137e-02 -2.871800e+00 56 5 0
7.082111e-01 -1.541678e-01 -2.590002e+00 220 230 222
-2.358043e-01 -4.345440e-02 -2.938146e+00 213 220 214
-2.354160e-01 -4.416320e-02 -2.938401e+00 213 220 214
-1.544195e-01 -4.947773e-03 -2.879610e+00 246 42 40
-1.370936e-01 2.089718e-03 -2.866775e+00 64 11 3
-1.374743e-01 1.758387e-03 -2.866407e+00 64 11 3
7.548340e-01 -4.165579e-02 -2.498907e+00 105 77 70
7.561831e-01 -4.252761e-02 -2.498915e+00 105 77 70
3.429813e-01 2.790598e-02 -2.913207e+00 100 156 78
3.427341e-01 2.792456e-02 -2.912842e+00 100 156 78
-5.965967e-01 3.010660e-01 -3.401571e+00 116 174 185
-2.931382e-01 3.122477e-01 -3.232277e+00 173 56 99
-3.983868e-01 3.324606e-01 -3.291478e+00 164 70 106
5.722778e-01 2.645312e-01 -2.549778e+00 117 127 118
-1.227942e-02 7.972072e-01 -3.217120e+00 191 197 188
4.959423e-01 6.970118e-01 -2.627875e+00 132 147 131
3.728214e-01 7.702483e-01 -2.755280e+00 176 178 169
-8.570290e-01 -3.374535e-01 -3.270915e+00 37 36 39
6.557935e-01 -3.870465e-01 -2.588479e+00 175 181 177
-2.411870e-01 -2.575594e-01 -2.929747e+00 162 123 122
-3.751006e-01 -2.300245e-01 -3.046264e+00 35 27 13
-3.751006e-01 -2.300245e-01 -3.046264e+00 35 27 13
3.293281e-01 -2.185034e-01 -3.067011e+00 29 64 15
-5.554687e-01 -1.139995e-01 -3.315623e+00 97 160 105
-3.135386e-01 -1.178159e-01 -2.997270e+00 211 216 209
-3.120832e-01 -1.155003e-01 -2.999212e+00 211 216 209
-1.839940e-01 -1.280360e-01 -2.900384e+00 217 222 217
-2.077858e-01 -1.239728e-01 -2.916060e+00 212 213 208
-3.244135e-01 -9.633207e-02 -3.003163e+00 30 29 32
-2.974413e-01 -5.706648e-02 -2.984839e+00 22 22 26
-2.974413e-01 -5.706648e-02 -2.984839e+00 22 22 26
-3.019923e-01 -1.911443e-02 -2.987537e+00 217 218 211
-5.829995e-01 3.116684e-02 -3.407067e+00 121 168 168
7.497436e-01 -1.313987e-01 -2.504835e+00 214 220 212
-1.783170e-01 -1.533286e-02 -2.894910e+00 113 12 7
-1.777637e-01 -1.527046e-02 -2.896360e+00 113 12 7
-1.291272e-01 -1.150226e-02 -2.859102e+00 247 42 37
7.145651e-01 -1.077248e-01 -2.574463e+00 192 197 191
-2.805800e-01 3.100293e-02 -2.971609e+00 210 215 211
7.702803e-01 -8.748461e-02 -2.498268e+00 216 221 214
5.478410e-01 3.007780e-02 -2.581479e+00 122 126 108
5.621415e-01 5.731064e-01 -2.551447e+00 148 160 141
5.564234e-01 6.090286e-01 -2.584038e+00 207 218 210
2.166531e-01 7.276532e-01 -2.844454e+00 169 175 171
5.264855e-01 6.775118e-01 -2.552180e+00 222 237 236
1.947634e-01 8.587466e-01 -3.048935e+00 163 163 157
1.973590e-01 8.589810e-01 -3.050848e+00 163 163 157
-7.140602e-01 -6.960672e-01 -2.735431e+00 131 134 126
7.850502e-02 -5.642052e-01 -2.223744e+00 106 154 70
-9.206858e-01 -4.361282e-01 -3.167355e+00 18 28 29
-9.206858e-01 -4.361282e-01 -3.167355e+00 18 28 29
-8.961341e-01 -4.276535e-01 -3.176174e+00 33 37 34
-3.500980e-01 -4.608967e-01 -2.845187e+00 51 65 17
-5.704812e-01 -4.136971e-01 -3.084149e+00 78 59 26
-1.953025e-01 -2.708350e-01 -2.911480e+00 185 144 141
-3.191166e-01 -2.350506e-01 -3.000497e+00 161 123 122
-3.176081e-01 -2.351385e-01 -3.001629e+00 161 123 122
-2.902622e-01 -2.316329e-01 -2.981335e+00 26 23 22
2.880337e-01 -2.279431e-01 -2.483023e+00 98 164 71
-1.678620e-01 -1.304261e-01 -2.892920e+00 211 217 210
-1.677820e-01 -1.305209e-01 -2.892241e+00 211 217 210
-3.022141e-01 -1.041030e-01 -2.987242e+00 47 46 48
-2.465828e-01 -1.085054e-01 -2.945059e+00 204 206 200
-2.462230e-01 -1.088389e-01 -2.945504e+00 204 206 200
-2.648898e-01 -1.036332e-01 -2.958915e+00 225 226 220
-2.880652e-01 -9.621199e-02 -2.978858e+00 210 213 207
-3.090468e-01 -9.187063e-02 -2.994737e+00 212 209 201
-6.692284e-01 -2.765322e-02 -3.463758e+00 199 189 156
-2.903813e-01 -6.773902e-02 -2.978327e+00 213 214 207
-3.088774e-01 -6.091071e-02 -2.992810e+00 212 215 210
-3.084899e-01 -6.076643e-02 -2.993353e+00 212 215 210
-2.193632e-01 -6.401374e-02 -2.937946e+00 40 46 39
7.961984e-01 -1.403852e-01 -2.479306e+00 209 213 206
-2.006367e-01 -9.452074e-03 -2.911579e+00 134 12 10
-2.004170e-01 -9.571085e-03 -2.911838e+00 134 12 10
-2.190564e-01 -2.303574e-04 -2.926416e+00 52 14 13
-2.489607e-01 7.617696e-03 -2.948593e+00 48 46 50
-3.068267e-01 5.396667e-02 -2.992780e+00 85 82 84
-5.676474e-01 1.326137e-01 -3.394258e+00 196 181 148
1.205649e-02 2.510965e-02 -2.592736e+00 52 99 29
-5.632526e-01 1.568780e-01 -3.392905e+00 195 169 140
4.725719e-01 3.780947e-02 -2.817955e+00 206 244 117
-3.924937e-01 2.092957e-01 -3.216077e+00 67 82 75
5.297826e-01 8.876314e-02 -2.582978e+00 191 206 188
7.082982e-01 9.065224e-02 -2.543107e+00 184 191 183
6.912737e-01 1.455643e-01 -2.560990e+00 180 190 184
-6.204831e-01 3.618110e-01 -3.416335e+00 151 152 172
5.931684e-01 3.444921e-01 -2.542732e+00 219 227 223
5.975150e-01 3.561198e-01 -2.538286e+00 172 181 174
5.784706e-01 3.847976e-01 -2.606246e+00 166 184 169
2.791114e-01 5.603165e-01 -2.805227e+00 197 216 214
1.086812e+00 4.745308e-01 -2.440165e+00 185 179 184
5.918951e-01 5.110362e-01 -2.539641e+00 169 181 171
1.578348e-01 6.322241e-01 -2.995874e+00 120 105 96
1.009055e-01 6.690739e-01 -3.138498e+00 179 180 173
-3.256934e-01 8.890486e-01 -3.402389e+00 105 84 84
9.712671e-01 7.016112e-01 -2.463780e+00 98 79 90
4.252117e-01 8.429414e-01 -2.693221e+00 213 224 226
2.601055e-01 4.024594e-01 -2.874727e+00 41 33 19
2.601055e-01 4.024594e-01 -2.874727e+00 41 33 19
9.408165e-01 5.138242e-01 -2.579683e+00 229 235 235
-3.873229e-01 -3.542765e-01 -3.002444e+00 223 197 47
-3.827476e-01 -3.569654e-01 -3.009993e+00 223 197 47
-6.302457e-01 -4.818242e-02 -3.437502e+00 183 184 147
1.361182e-01 6.439025e-01 -3.107483e+00 107 95 78
-6.325390e-01 -2.110466e-01 -3.462560e+00 81 157 171
-6.381783e-01 -2.099624e-01 -3.454479e+00 81 157 171
-4.274819e-02 1.652491e-01 -2.945522e+00 41 52 19
1.555189e-01 2.187594e-01 -2.981799e+00 125 191 101
-3.650709e-01 6.985759e-01 -3.386418e+00 72 48 36
-4.480029e-01 8.160550e-01 -3.477761e+00 25 20 17
-5.095806e-01 -1.371680e-01 -3.286370e+00 40 39 37
-4.146014e-01 9.757869e-02 -3.218878e+00 32 29 16
-3.241287e-02 1.043946e-01 -2.709082e+00 134 207 110
-3.552001e-01 6.573226e-01 -3.318846e+00 228 232 236
6.069799e-01 3.111929e-01 -2.528799e+00 226 237 233
7.048140e-02 7.442606e-01 -3.124704e+00 189 191 182
1.781089e-01 7.450092e-01 -3.096952e+00 180 184 178
2.032888e-01 8.168841e-01 -3.044179e+00 148 144 138
-6.693082e-01 -3.360203e-01 -3.567562e+00 114 118 124
-6.718717e-01 -3.338007e-01 -3.565174e+00 114 118 124
-2.675748e-01 -5.256328e-01 -2.736784e+00 242 255 128
-3.997250e-01 -2.495551e-01 -3.048600e+00 213 187 40
1.931232e-01 -4.436920e-01 -2.700259e+00 116 174 92
1.931232e-01 -4.436920e-01 -2.700259e+00 116 174 92
1.034910e-01 5.783143e-01 -3.151453e+00 232 241 242
9.271978e-01 2.899512e-01 -2.469999e+00 204 211 204
-9.152379e-02 7.681798e-01 -3.251531e+00 183 180 173
2.335087e-01 7.030910e-01 -2.850194e+00 197 212 214
3.984561e-01 8.556057e-01 -2.885354e+00 185 194 189
-5.954968e-01 -4.781954e-01 -2.982064e+00 33 38 32
-2.883747e-01 -5.649393e-01 -2.756264e+00 125 98 21
-5.049395e-01 -3.969089e-01 -3.082580e+00 55 43 10
-4.001295e-01 2.139592e-01 -3.221555e+00 154 166 157
5.414000e-01 -3.328678e-02 -2.633917e+00 121 203 105
5.414000e-01 -3.328678e-02 -2.633917e+00 121 203 105
2.200472e-02 2.297782e-01 -3.044836e+00 201 193 198
3.183145e-01 3.010957e-01 -2.708348e+00 239 116 179
5.643715e-01 2.505117e-01 -2.590721e+00 200 221 221
4.874709e-01 3.557338e-01 -2.492209e+00 217 232 229
3.418372e-02 8.361312e-01 -3.177256e+00 192 197 191
3.259253e-02 8.368931e-01 -3.174909e+00 192 197 191
3.359171e-01 7.956253e-01 -2.757949e+00 213 223 222
7.052675e-01 -6.418330e-01 -2.509241e+00 187 187 189
7.052675e-01 -6.418330e-01 -2.509241e+00 187 187 189
-1.723123e-01 -1.946158e-01 -2.897788e+00 39 18 17
-1.725574e-01 1.571671e-02 -2.893770e+00 134 12 8
-5.912145e-01 3.468700e-01 -3.396893e+00 116 180 191
-4.199879e-01 3.175342e-01 -3.308298e+00 169 185 198
5.605737e-01 -1.482767e-02 -2.605529e+00 66 79 34
5.745807e-01 9.281296e-02 -2.771240e+00 83 146 70
7.264276e-01 -1.407049e-02 -2.508951e+00 204 212 210
-3.670813e-01 6.456175e-01 -3.332689e+00 227 232 237
8.589945e-03 5.333629e-01 -3.116707e+00 230 132 163
5.834216e-01 3.226018e-01 -2.605617e+00 125 135 112
-3.559262e-01 7.522859e-01 -3.378160e+00 162 169 162
6.011234e-01 4.369352e-01 -2.522222e+00 216 230 228
-1.866652e-02 7.910589e-01 -3.212180e+00 194 198 190
6.063894e-02 8.004210e-01 -3.158303e+00 186 191 184
2.726032e-01 7.811993e-01 -3.002133e+00 187 197 189
-6.925907e-01 -3.907543e-01 -3.206252e+00 92 109 98
-5.526530e-01 -4.977564e-01 -2.930682e+00 55 63 63
-5.526530e-01 -4.977564e-01 -2.930682e+00 55 63 63
-5.014746e-01 -4.767451e-01 -2.951997e+00 58 66 63
-4.612306e-01 -4.793320e-01 -2.949385e+00 99 111 98
1.059815e-01 -7.518972e-01 -2.386447e+00 164 168 160
-5.284436e-01 -6.829770e-02 -3.310184e+00 44 39 36
1.678830e-01 -4.654365e-01 -2.644429e+00 38 49 15
-1.809412e-01 -2.557949e-01 -2.905158e+00 53 13 8
6.700137e-01 -6.290168e-01 -2.524856e+00 34 37 31
-3.675908e-01 -8.462473e-02 -3.036830e+00 203 206 200
-1.084724e-01 -3.381579e-02 -2.600898e+00 58 96 28
6.894902e-02 2.412341e-02 -2.569845e+00 154 214 123
-2.915126e-01 3.122074e-01 -3.234585e+00 203 101 131
7.141348e-01 -8.681000e-02 -2.559688e+00 133 130 115
7.222633e-01 -7.419575e-02 -2.532287e+00 207 209 202
7.036794e-01 -3.356683e-02 -2.558015e+00 190 194 183
7.192748e-01 -3.950470e-02 -2.531840e+00 89 76 53
6.147798e-02 2.839174e-01 -3.038939e+00 124 199 216
-5.410685e-01 5.486686e-01 -3.365446e+00 186 208 167
-5.405837e-01 5.510493e-01 -3.367118e+00 186 208 167
2.927220e-01 5.868502e-01 -2.804485e+00 26 35 35
2.070389e-01 6.686590e-01 -2.903056e+00 172 176 175
3.700578e-01 7.075575e-01 -2.828368e+00 174 185 178
3.090385e-01 7.375358e-01 -2.814360e+00 145 151 141
3.317328e-01 8.314404e-01 -2.961777e+00 180 184 178
2.908966e-01 8.564756e-01 -2.984151e+00 163 163 153
3.591744e-01 8.611118e-01 -2.937294e+00 146 146 139
3.972655e-01 8.246194e-01 -2.732801e+00 222 234 234
-6.565031e-01 -4.252059e-01 -3.121135e+00 76 99 90
-4.406670e-01 -5.650559e-01 -2.767659e+00 32 33 13
-3.844096e-01 -4.569107e-01 -2.884846e+00 47 52 13
1.312273e-02 -6.522307e-01 -2.546811e+00 147 150 141
-2.807390e-01 3.116675e-02 -2.971522e+00 213 214 213
-1.689772e-01 1.733576e-01 -3.096357e+00 204 204 186
-5.193932e-01 4.484048e-01 -3.352903e+00 160 188 188
5.764143e-01 2.838252e-01 -2.636880e+00 108 127 95
5.798222e-01 2.487265e-01 -2.514849e+00 212 226 226
1.497374e-01 5.722453e-01 -3.135273e+00 123 121 105
1.551564e-02 6.869956e-01 -3.154177e+00 94 84 76
5.937247e-01 4.319088e-01 -2.582075e+00 210 222 221
2.182818e-01 7.278592e-01 -2.845613e+00 158 163 161
5.120008e-01 7.159291e-01 -2.776920e+00 136 139 129
-8.528331e-01 -3.391017e-01 -3.275503e+00 42 51 47
-2.363445e-01 -5.529158e-01 -2.693749e+00 118 171 90
-5.020931e-01 -2.651956e-01 -3.283785e+00 115 140 124
-5.687262e-01 -1.304004e-01 -3.325571e+00 116 165 114
-6.466141e-01 5.884356e-02 -3.446940e+00 76 92 120
-6.552092e-01 6.773404e-02 -3.452547e+00 129 183 188
-2.735896e-01 -1.436496e-01 -2.972206e+00 211 212 207
-4.440716e-01 2.180993e-01 -3.246208e+00 95 109 92
-4.440716e-01 2.180993e-01 -3.246208e+00 95 109 92
7.142056e-01 -2.377363e-01 -2.551716e+00 191 196 184
-6.150851e-01 4.233268e-01 -3.408551e+00 198 127 146
2.896227e-01 2.334934e-01 -2.675807e+00 164 214 123
9.067944e-01 5.056305e-02 -2.460187e+00 36 39 38
5.679426e-01 2.220038e-01 -2.521309e+00 215 232 231
5.831826e-01 2.515605e-01 -2.474848e+00 225 236 237
-3.407965e-01 7.611125e-01 -3.411626e+00 166 166 160
6.541620e-01 3.112889e-01 -2.490329e+00 143 142 133
5.912631e-01 3.808612e-01 -2.579238e+00 173 180 167
2.884032e-01 5.470187e-01 -2.799128e+00 101 144 90
2.760465e-01 5.693422e-01 -2.822098e+00 22 29 36
3.017250e-01 5.763903e-01 -2.783276e+00 221 245 250
3.333370e-01 5.928487e-01 -2.780175e+00 208 238 241
1.040326e-01 8.084513e-01 -3.123500e+00 188 185 179
5.682767e-01 5.514239e-01 -2.556914e+00 137 150 128
8.816427e-02 8.608321e-01 -3.138758e+00 120 121 113
9.042177e-02 8.610587e-01 -3.141107e+00 120 121 113
4.903155e-01 7.174660e-01 -2.667254e+00 145 151 137
3.056442e-01 7.875949e-01 -2.776557e+00 221 231 232
-4.479038e-01 -4.259709e-01 -2.995953e+00 175 153 16
-3.601820e-01 -4.771634e-01 -2.833581e+00 184 202 84
-3.691595e-01 -4.481619e-01 -2.879843e+00 217 236 128
-3.532859e-01 -4.524114e-01 -2.874298e+00 37 57 8
-5.000580e-01 -2.319674e-01 -3.287977e+00 102 132 99
-5.539906e-01 -1.294152e-01 -3.318199e+00 40 84 44
-6.665048e-01 -3.179894e-02 -3.447496e+00 125 31 42
-2.840315e-01 -2.435949e-01 -2.975849e+00 179 138 142
-2.645964e-01 -2.498495e-01 -2.963123e+00 178 139 139
-2.681498e-01 -2.488308e-01 -2.964569e+00 178 139 139
-2.131924e-01 -2.652042e-01 -2.920418e+00 178 132 130
-2.468462e-01 -2.444010e-01 -2.947384e+00 33 24 22
-1.949461e-01 -2.708696e-01 -2.911666e+00 174 137 134
-2.520198e-01 -1.506646e-01 -2.954165e+00 213 217 213
-2.445808e-01 -1.083002e-01 -2.946897e+00 219 225 221
-3.310623e-01 -5.451316e-02 -3.010248e+00 212 212 209
-2.604883e-01 -7.692644e-02 -2.957587e+00 221 222 221
-2.443300e-01 -8.061777e-02 -2.945817e+00 224 224 219
-2.223130e-01 -6.895517e-02 -2.942952e+00 98 96 97
-1.666595e-01 -1.037411e-01 -2.887597e+00 221 221 222
-3.233697e-01 -1.221644e-02 -3.003209e+00 219 220 217
-5.617280e-01 1.785669e-01 -3.388070e+00 193 141 130
-2.758893e-01 1.686586e-03 -2.968101e+00 217 219 216
-3.292247e-01 2.876746e-02 -3.006384e+00 36 38 34
-3.292247e-01 2.876746e-02 -3.006384e+00 36 38 34
-2.474916e-01 -7.075598e-03 -2.948541e+00 220 206 205
-3.102867e-01 4.025987e-02 -2.993968e+00 31 29 33
-1.947129e-01 2.248743e-02 -2.909389e+00 105 35 30
-3.365244e-01 1.076274e-01 -3.012923e+00 225 207 196
-3.365244e-01 1.076274e-01 -3.012923e+00 225 207 196
7.169651e-01 -2.787343e-01 -2.533986e+00 191 197 187
-2.798522e-01 2.809111e-01 -3.058372e+00 116 167 196
2.045281e-02 2.265818e-01 -3.052145e+00 222 227 231
4.313791e-01 6.391503e-02 -2.850942e+00 118 177 91
7.116508e-01 6.072347e-02 -2.525232e+00 187 192 185
2.357566e-01 2.404441e-01 -2.697296e+00 82 131 56
-2.149996e-01 5.115522e-01 -3.183950e+00 92 188 217
2.378349e-01 3.147638e-01 -2.793299e+00 165 173 97
5.663762e-01 2.432350e-01 -2.560619e+00 193 212 214
1.209970e-01 5.540279e-01 -3.124688e+00 217 229 233
5.735265e-01 2.929044e-01 -2.575111e+00 145 152 136
-4.314687e-01 7.718024e-01 -3.461646e+00 121 106 103
1.264448e-01 5.993727e-01 -3.140154e+00 214 230 204
1.291904e-01 5.992319e-01 -3.142763e+00 214 230 204
1.141851e-01 6.138473e-01 -3.156611e+00 109 111 98
-4.051923e-01 7.987504e-01 -3.428928e+00 143 133 131
5.922004e-01 3.747412e-01 -2.547399e+00 175 186 172
-3.224835e-01 8.939776e-01 -3.423041e+00 88 70 64
6.015210e-01 4.542817e-01 -2.546236e+00 165 177 163
3.130288e-01 5.918268e-01 -2.787658e+00 87 118 117
3.119033e-01 5.920544e-01 -2.786657e+00 87 118 117
6.077970e-01 4.667686e-01 -2.516620e+00 203 216 211
4.292963e-01 5.582689e-01 -2.690513e+00 157 210 152
5.466453e-01 6.057448e-01 -2.550058e+00 160 173 156
3.419182e-01 8.927607e-01 -2.940185e+00 191 196 189
2.245057e-01 -5.451544e-01 -2.513892e+00 130 136 133
4.518249e-01 -1.624939e-01 -2.720955e+00 13 13 11
-5.471228e-01 3.132945e-02 -3.314000e+00 33 33 27
2.623881e-01 -4.191833e-01 -2.639351e+00 67 82 43
-2.049634e-01 -1.214682e-01 -2.920497e+00 206 208 203
5.344484e-01 1.960678e-01 -2.528235e+00 203 221 220
-2.164794e-01 -4.895321e-01 -2.730823e+00 24 24 15
6.511596e-02 -5.566703e-01 -2.555178e+00 21 32 16
-6.033789e-01 -2.710259e-01 -3.416647e+00 15 17 14
1.686860e-01 -5.046143e-01 -2.592603e+00 114 184 95
-1.229232e-01 7.691863e-01 -3.223540e+00 177 177 169
5.909621e-01 4.948741e-01 -2.566965e+00 133 144 124
-2.620217e-01 -5.304293e-01 -2.744103e+00 245 255 86
5.175824e-02 -3.136695e-01 -2.930735e+00 116 183 96
9.906586e-01 5.815136e-01 -2.431122e+00 201 212 207
2.899541e-01 8.076646e-01 -2.871517e+00 138 142 141
3.770424e-01 7.634823e-01 -2.757351e+00 174 178 169
6.178776e-01 -2.111053e-02 -2.598121e+00 211 220 212
-5.748560e-01 -4.549446e-01 -3.020906e+00 117 127 121
-5.027330e-01 -3.991584e-01 -3.155450e+00 111 112 108
7.310901e-01 -5.484085e-01 -2.502941e+00 53 41 41
-1.726533e-01 -1.957400e-01 -2.898282e+00 27 17 18
7.133287e-01 -1.932968e-01 -2.606017e+00 120 121 107
6.740953e-01 -1.875752e-01 -2.617294e+00 201 206 199
-2.863188e-01 4.978015e-01 -3.221182e+00 199 216 171
-2.124250e-01 4.884422e-01 -3.175579e+00 69 184 224
6.916419e-01 -5.273976e-03 -2.622034e+00 126 123 110
-4.922158e-01 5.368379e-01 -3.333683e+00 193 205 163
8.662933e-01 9.112527e-02 -2.460345e+00 204 204 205
5.445914e-01 8.332561e-01 -2.662311e+00 190 198 194
-2.398990e-01 1.806896e-02 -2.939819e+00 211 216 210
-2.401671e-01 1.818096e-02 -2.940259e+00 211 216 210
6.613269e-01 -1.816308e-01 -2.635630e+00 204 213 199
6.708537e-01 -7.987547e-02 -2.613967e+00 109 107 94
6.708537e-01 -7.987547e-02 -2.613967e+00 109 107 94
9.817669e-01 5.403282e-01 -2.416005e+00 180 185 183
-2.889725e-01 -5.894601e-01 -2.726491e+00 128 137 119
-5.688325e-01 -4.393754e-01 -3.072898e+00 34 37 35
3.238945e-01 -3.348780e-01 -2.495324e+00 99 92 66
-2.315164e-01 3.421243e-02 -2.934418e+00 54 54 56
6.995052e-01 -1.309668e-01 -2.609761e+00 83 86 72
2.282133e-01 2.945684e-01 -2.760471e+00 155 183 106
2.350530e-01 2.955406e-01 -2.768197e+00 155 183 106
2.947610e-01 5.592197e-01 -2.779641e+00 120 172 110
4.592259e-01 5.646786e-01 -2.675146e+00 61 87 88
4.600925e-01 5.646620e-01 -2.676036e+00 61 87 88
4.892421e-01 5.730053e-01 -2.677164e+00 209 226 243
7.303841e-02 8.385608e-01 -3.160611e+00 135 133 127
5.324023e-01 7.827467e-01 -2.718219e+00 162 174 166
3.632604e-01 8.905099e-01 -2.922664e+00 197 204 202
2.106919e+00 -1.978570e+00 -3.145346e+00 77 65 75
-6.048294e-01 -4.635181e-01 -3.022929e+00 46 57 51
-3.428822e-01 -4.987402e-01 -2.806317e+00 106 106 10
-3.554780e-01 -4.905086e-01 -2.829386e+00 103 104 18
2.232170e-01 -6.971167e-01 -2.207237e+00 49 96 28
5.292742e-02 -5.424654e-01 -2.427191e+00 18 92 25
-2.999218e-01 -2.387217e-01 -2.988833e+00 186 149 147
-1.731958e-01 -1.520373e-01 -2.894784e+00 210 212 212
-1.731958e-01 -1.520373e-01 -2.894784e+00 210 212 212
-1.947301e-01 -1.307036e-01 -2.908926e+00 44 49 46
-1.947301e-01 -1.307036e-01 -2.908926e+00 44 49 46
-1.978206e-01 -9.577283e-02 -2.911042e+00 213 218 214
6.364203e-01 -3.292640e-01 -2.627624e+00 206 222 220
-2.206454e-01 2.612373e-02 -2.929683e+00 218 222 219
-2.111468e-01 2.790801e-02 -2.921812e+00 58 60 64
-1.127284e-01 -9.551671e-03 -2.614436e+00 73 108 40
-2.885675e-01 1.241551e-01 -2.976740e+00 167 107 65
-2.885675e-01 1.241551e-01 -2.976740e+00 167 107 65
8.101438e-01 -1.675458e-01 -2.474501e+00 207 208 203
5.664794e-01 -1.839540e-02 -2.621215e+00 40 60 16
-4.261130e-01 4.011749e-01 -3.304091e+00 51 132 155
6.852337e-01 8.107452e-02 -2.596253e+00 186 187 182
6.877394e-01 7.842296e-02 -2.581535e+00 97 98 88
5.328219e-01 1.458101e-01 -2.539747e+00 200 212 208
5.749227e-01 3.343637e-01 -2.627459e+00 128 145 128
5.810201e-01 3.726142e-01 -2.592667e+00 211 224 221
5.804506e-01 4.151288e-01 -2.572137e+00 215 231 228
6.003029e-01 4.793571e-01 -2.515173e+00 195 208 202
5.933392e-01 5.065224e-01 -2.507674e+00 222 235 228
1.007472e+00 5.852347e-01 -2.394217e+00 64 51 64
5.089820e-01 6.855711e-01 -2.560567e+00 212 230 234
2.060434e-01 8.852953e-01 -3.048539e+00 187 192 186
-3.303610e-01 8.797092e-02 -3.006909e+00 208 204 203
-4.470527e-01 1.890889e-01 -3.248083e+00 62 87 68
-5.194193e-01 5.511697e-01 -3.348415e+00 43 159 200
-1.572849e-01 -2.483074e-02 -2.882137e+00 245 40 28
-6.012245e-01 -1.178928e-01 -3.426745e+00 94 153 156
-1.884234e-01 -2.869981e-01 -2.905374e+00 70 7 0
-3.308288e-01 -1.142561e-01 -3.008273e+00 55 55 54
-4.218860e-01 2.277880e-01 -3.230656e+00 69 81 74
-4.218860e-01 2.277880e-01 -3.230656e+00 69 81 74
-3.329459e-01 -7.582875e-01 -2.469467e+00 170 178 165
-1.735106e-01 -1.389290e-03 -2.892831e+00 91 1 0
-2.760546e-01 -7.504137e-02 -2.968231e+00 18 18 17
-2.775181e-01 -1.061033e-01 -2.969926e+00 33 33 31
-2.775181e-01 -1.061033e-01 -2.969926e+00 33 33 31
-2.368164e-01 3.632817e-02 -2.936527e+00 58 58 61
-2.439365e-01 7.513932e-01 -3.266813e+00 210 211 215
1.982024e-01 -4.690297e-01 -2.649189e+00 44 48 19
1.056353e+00 6.207734e-01 -2.443891e+00 64 55 60
-1.865583e-01 -8.195242e-01 -2.448470e+00 173 185 169
-2.896505e-01 -9.552258e-01 -3.050123e+00 151 153 148
4.995461e-01 7.109432e-01 -2.794935e+00 205 220 222
-5.959090e-01 4.647433e-01 -3.292689e+00 122 186 190
-4.785587e-01 -2.587558e-01 -3.177661e+00 43 36 18
-1.907666e-01 9.346095e-02 -2.903490e+00 221 226 222
5.374716e-02 4.523468e-01 -3.051437e+00 217 136 153
-5.511426e-01 -1.910833e-01 -3.315439e+00 95 166 110
-3.241811e-01 9.053995e-01 -3.435914e+00 74 56 50
-6.245537e-01 -4.186224e-01 -3.101532e+00 38 43 42
-3.018501e-01 -6.043615e-01 -2.655735e+00 6 13 11
-1.524830e-01 -5.226474e-01 -2.677349e+00 129 192 106
-4.128505e-01 2.672226e-01 -3.208545e+00 105 128 102
7.116762e-03 7.323673e-01 -3.148675e+00 92 74 60
-6.665361e-01 -3.843335e-01 -3.141990e+00 33 34 28
-6.264234e-01 -3.577257e-01 -3.158422e+00 196 213 223
-5.255666e-01 -8.191525e-01 -2.553832e+00 131 139 142
-4.664344e-01 -6.786382e-01 -2.551911e+00 45 57 63
-2.698836e-01 -5.773683e-01 -2.710320e+00 19 28 19
4.434327e-02 8.080798e-01 -3.154551e+00 186 191 184
-9.311839e-01 -4.360811e-01 -3.200777e+00 116 129 125
-3.395822e-01 -5.892431e-01 -2.706275e+00 22 79 51
-5.550292e-01 -1.451136e-01 -3.314289e+00 55 74 52
-2.442121e-01 -2.714962e-02 -2.952761e+00 35 34 33
-6.086537e-01 2.298477e-01 -3.409610e+00 111 180 185
-2.064362e-01 1.234392e-02 -2.920624e+00 57 21 20
-5.521936e-01 2.956966e-01 -3.373642e+00 210 111 133
1.597915e+00 5.828372e-01 -5.151827e+00 201 207 174
4.990288e-01 4.986231e-01 -3.812276e+00 206 218 185
1.618716e-01 6.326077e-01 -2.991905e+00 109 91 82
2.942127e-01 5.863464e-01 -2.805394e+00 26 35 35
1.672382e-01 7.193401e-01 -2.901873e+00 175 177 174
-1.301598e-01 -8.247726e-01 -2.291868e+00 176 182 176
-7.373781e-02 -8.499691e-01 -2.257984e+00 182 187 179
-7.373781e-02 -8.499691e-01 -2.257984e+00 182 187 179
-2.969735e-01 -8.180907e-02 -2.988947e+00 20 19 17
5.841370e-01 -4.411680e-02 -2.601290e+00 76 101 53
1.769049e+00 -2.273612e+00 -2.628684e+00 86 75 83
-5.722790e-01 -7.155196e-01 -2.528701e+00 37 97 78
-8.659838e-01 -4.226469e-01 -3.194980e+00 33 36 42
-2.275682e-02 -9.071726e-01 -2.423995e+00 186 192 187
-1.048190e-02 -8.824852e-01 -2.208176e+00 187 189 185
-6.912191e-01 -1.849679e-01 -3.484650e+00 182 81 103
-6.000327e-01 3.556763e-01 -3.401559e+00 137 173 191
-1.518486e-02 1.704354e-02 -2.598317e+00 103 175 79
5.758679e-01 -2.338418e-02 -2.582928e+00 204 214 204
7.127087e-01 3.550163e-02 -2.524949e+00 206 213 206
5.678407e-01 2.230461e-01 -2.521255e+00 215 232 231
6.052152e-01 2.707485e-01 -2.506441e+00 223 233 233
1.909248e+00 -2.245739e+00 -2.632013e+00 68 57 65
-5.208434e-01 -6.727406e-01 -2.595812e+00 157 173 171
2.127540e+00 -2.165646e+00 -2.736579e+00 73 63 64
2.127540e+00 -2.165646e+00 -2.736579e+00 73 63 64
-4.510847e-01 -6.571012e-01 -2.605221e+00 40 79 63
-1.524940e-01 -8.040218e-01 -2.327739e+00 153 152 148
-6.281399e-01 -3.547474e-01 -3.160169e+00 189 211 222
-4.789594e-01 -3.736806e-01 -3.090199e+00 208 209 112
-3.316678e-01 -5.549382e-02 -3.010017e+00 212 212 209
-2.176654e-01 -5.551943e-02 -2.924348e+00 85 85 87
9.139321e-01 5.761196e-02 -2.477290e+00 202 200 201
1.879300e-02 7.684157e-01 -3.189140e+00 143 140 136
1.879300e-02 7.684157e-01 -3.189140e+00 143 140 136
-4.093890e-02 1.012747e-01 -2.705363e+00 129 198 106
-2.831701e-01 4.982052e-01 -3.226378e+00 199 216 171
4.216866e-02 -6.446416e-01 -2.561287e+00 26 25 22
-7.258280e-02 1.112076e-01 -2.873140e+00 35 37 20
-5.241333e-01 5.343877e-01 -3.277992e+00 193 205 163
-3.292698e-02 2.771704e-02 -2.615269e+00 136 212 119
-3.292698e-02 2.771704e-02 -2.615269e+00 136 212 119
-3.298804e-01 1.676077e-02 -3.006554e+00 204 206 200
-6.311406e-01 3.631924e-01 -3.424509e+00 69 57 72
-4.238786e-01 4.023996e-01 -3.305730e+00 51 132 155
4.650847e-01 4.538918e-01 -2.608753e+00 36 49 19
-2.737525e-01 1.002479e+00 -3.441906e+00 76 59 54
4.967222e-01 7.210723e-01 -2.697068e+00 135 144 131
-3.960555e-01 9.118012e-01 -3.534208e+00 39 29 28
7.268179e-01 -3.206466e-01 -2.570534e+00 154 155 145
-5.633941e-01 5.529403e-01 -3.368255e+00 209 118 135
1.180274e-01 -5.425055e-01 -2.482608e+00 122 192 101
1.817573e-01 -5.125813e-01 -2.596608e+00 117 184 95
-3.480468e-01 2.064860e-01 -3.065151e+00 195 180 144
1.864959e-01 2.183993e-01 -2.998156e+00 122 195 101
-4.019424e-01 7.450121e-01 -3.443467e+00 166 163 158
6.918832e-01 -5.777627e-01 -2.520204e+00 185 182 178
5.515740e-01 -3.783901e-01 -2.647586e+00 135 200 107
6.331699e-01 -4.370113e-01 -2.864889e+00 132 135 129
-3.411259e-02 1.342221e-01 -2.934212e+00 58 63 32
4.981578e-01 7.974647e-01 -2.762687e+00 218 231 229
-5.756521e-01 -4.996569e-01 -2.930655e+00 25 28 28
-2.608833e-01 1.177069e-01 -2.961733e+00 98 55 32
-3.593069e-01 6.013695e-01 -3.262212e+00 216 91 135
-2.615878e-01 5.862437e-01 -3.202721e+00 213 101 139
2.069096e-01 7.479757e-01 -2.952597e+00 52 43 34
2.196907e-01 7.495888e-01 -2.960350e+00 52 43 34
-2.343514e-01 1.011267e+00 -3.424108e+00 146 141 140
-4.587311e-01 -4.394622e-01 -2.997305e+00 84 54 1
7.102742e-01 -4.952431e-01 -2.512935e+00 196 198 191
-5.348786e-01 -5.123800e-01 -2.887362e+00 175 139 70
-5.737163e-01 -4.576503e-01 -3.025306e+00 88 96 94
-1.974245e-01 2.611509e-01 -3.163761e+00 225 237 243
-2.927206e-01 3.083907e-01 -3.233744e+00 188 75 110
-3.593651e-01 6.437016e-01 -3.384391e+00 87 69 59
2.916253e-01 5.875165e-01 -2.801422e+00 37 43 48
8.857383e-01 3.647835e-01 -2.387354e+00 25 23 29
-1.276655e-02 7.920555e-01 -3.216624e+00 193 196 188
-5.554488e-01 -4.950582e-01 -2.930047e+00 45 53 62
-1.307405e-01 -1.058626e-01 -2.864618e+00 247 41 40
6.413224e-01 -3.829287e-01 -2.603338e+00 209 219 219
-4.471381e-01 3.296197e-01 -3.318507e+00 71 93 122
9.391004e-02 5.341609e-01 -3.071065e+00 235 241 247
5.968999e-01 3.665166e-01 -2.546916e+00 172 183 175
5.968999e-01 3.665166e-01 -2.546916e+00 172 183 175
-3.194209e-01 8.933225e-01 -3.387744e+00 110 95 95
-3.058562e-01 9.437347e-01 -3.441320e+00 46 29 26
4.995843e-01 8.607237e-01 -2.815424e+00 185 201 197
-6.235481e-01 -4.933432e-01 -2.974386e+00 182 208 204
-6.040941e-01 -4.554640e-01 -3.027443e+00 45 53 57
-5.413782e-01 -4.825729e-01 -2.961863e+00 110 124 122
-5.413410e-01 -4.434190e-01 -3.043128e+00 102 123 115
-3.455288e-01 -4.619783e-01 -2.851158e+00 59 68 17
-6.698317e-01 -5.323807e-02 -3.471657e+00 189 184 149
-1.964153e-01 -1.162182e-01 -2.908056e+00 26 26 28
-2.406902e-01 1.886935e-02 -2.939212e+00 207 216 209
-1.705879e-01 1.730393e-01 -3.095468e+00 206 208 191
6.026649e-01 2.707842e-01 -2.468527e+00 236 244 243
5.743608e-01 3.266455e-01 -2.603619e+00 120 134 109
1.479592e+00 -2.220462e+00 -2.828941e+00 93 74 80
1.479592e+00 -2.220462e+00 -2.828941e+00 93 74 80
-6.216517e-01 -3.596607e-01 -3.145936e+00 195 214 220
1.834227e+00 -2.220159e+00 -2.729064e+00 146 145 149
-4.993891e-01 -3.913949e-01 -3.077831e+00 83 72 3
1.955964e+00 -2.265939e+00 -2.601870e+00 87 77 84
1.752349e+00 -2.116227e+00 -2.955577e+00 145 135 139
-5.913194e-01 -3.509432e-02 -3.411442e+00 96 153 149
-2.931368e-01 -1.340843e-01 -2.982306e+00 205 210 201
-2.882714e-01 -9.748339e-02 -2.978701e+00 212 216 212
-2.110171e-01 -1.654835e-02 -2.920410e+00 228 36 31
-2.408932e-01 1.846482e-02 -2.939650e+00 206 215 208
-6.227019e-01 3.390374e-01 -3.417857e+00 98 177 199
-4.419217e-01 3.361930e-01 -2.527251e+00 232 233 220
-3.636965e-01 3.195768e-01 -3.273335e+00 118 183 192
1.319576e-01 6.850287e-01 -3.017739e+00 125 120 116
3.581735e-01 8.912260e-01 -2.918717e+00 198 204 200
1.530063e+00 -2.323596e+00 -2.619814e+00 102 83 89
1.987575e-01 -1.060706e+00 -2.394810e+00 177 176 178
-4.732216e-01 -5.701838e-01 -2.773829e+00 61 89 85
4.812132e-01 -1.241979e+00 -2.442324e+00 150 146 142
1.529395e+00 -2.236752e+00 -2.776270e+00 99 83 87
-6.753464e-01 -4.122771e-01 -3.141242e+00 36 33 21
1.568236e+00 -2.231137e+00 -2.777425e+00 105 91 97
1.624720e+00 -2.181197e+00 -2.850345e+00 91 80 81
-6.184295e-01 -3.751319e-01 -3.114880e+00 28 79 161
-3.797549e-01 -4.397549e-01 -2.898199e+00 211 236 129
-3.797549e-01 -4.397549e-01 -2.898199e+00 211 236 129
-3.514936e-01 -4.517607e-01 -2.875015e+00 44 63 15
2.054345e+00 -2.221516e+00 -2.657202e+00 82 70 76
2.054345e+00 -2.221516e+00 -2.657202e+00 82 70 76
2.056896e+00 -2.036603e+00 -3.027084e+00 92 85 90
-2.371537e-01 -2.549189e-01 -2.814730e+00 224 50 45
2.424097e+00 -1.968306e+00 -3.027095e+00 76 62 66
-3.300168e-01 -7.026334e-02 -3.010296e+00 22 20 25
8.855328e-01 2.074901e-02 -2.430409e+00 58 20 31
5.976796e-01 3.699087e-01 -2.533587e+00 209 225 218
3.475791e-01 4.898344e-01 -2.134844e+00 40 30 39
3.412091e-01 8.931269e-01 -2.939500e+00 193 198 190
5.133301e-01 8.762317e-01 -2.799241e+00 154 164 155
-3.178064e-01 9.894674e-01 -3.493348e+00 31 20 18
-7.417041e-01 -6.986683e-01 -2.754046e+00 155 157 149
-5.192505e-02 6.641168e-01 -3.170682e+00 231 239 242
3.071840e-02 5.613482e-01 -3.022906e+00 114 97 81
-2.425835e-01 9.634239e-01 -3.397338e+00 182 180 178
-2.942687e-01 -5.568554e-01 -2.735676e+00 131 107 12
-4.297353e-01 2.960468e-01 -3.249148e+00 82 104 93
1.566398e-01 7.418882e-01 -3.080515e+00 181 183 179
2.333542e-01 7.042456e-01 -2.844749e+00 201 212 211
-7.549762e-01 -7.010448e-01 -2.763856e+00 164 171 158
-5.265937e-01 -8.212805e-01 -2.565481e+00 103 106 102
-5.265937e-01 -8.212805e-01 -2.565481e+00 103 106 102
-4.053240e-01 -7.898835e-01 -2.492962e+00 177 187 173
-3.631580e-01 -8.033398e-01 -2.456858e+00 171 181 170
-3.079028e-01 -8.175849e-01 -2.418420e+00 179 189 180
4.838603e-02 -6.797881e-01 -2.514556e+00 148 153 152
3.633162e-01 2.785640e-02 -2.893157e+00 26 56 9
3.600717e-01 4.961377e-02 -2.866218e+00 200 233 94
3.754943e-01 9.223870e-02 -2.872173e+00 103 91 20
5.995263e-01 2.599855e-01 -2.467691e+00 229 237 239
7.336994e-02 8.324958e-01 -3.142455e+00 151 145 142
4.983072e-01 7.015754e-01 -2.578534e+00 208 224 223
-9.241219e-01 -6.515972e-01 -2.922957e+00 155 153 144
-7.333768e-01 -7.061969e-01 -2.747232e+00 162 166 151
-4.576148e-01 -7.774897e-01 -2.527601e+00 180 185 173
-4.242083e-01 -7.848740e-01 -2.505770e+00 184 190 178
-2.937917e-01 -8.253823e-01 -2.400128e+00 185 192 181
-3.771668e-01 -4.535086e-01 -2.890867e+00 57 58 22
7.535320e-01 -4.130357e-02 -2.499069e+00 99 75 57
5.434387e-01 6.098333e-02 -2.582214e+00 106 108 78
2.777467e-01 8.447395e-01 -2.973370e+00 173 172 162
3.916127e-01 7.275790e-01 -2.796198e+00 197 210 201
2.296510e-01 7.496696e-01 -2.827898e+00 168 173 167
-7.208686e-01 -7.220598e-01 -2.734572e+00 148 136 127
6.498692e-01 -3.529522e-01 -2.601564e+00 182 185 177
5.707258e-01 2.753106e-02 -2.575989e+00 204 212 214
-3.806709e-01 6.756985e-01 -3.330085e+00 94 78 74
-3.638845e-01 7.436824e-01 -3.335929e+00 171 162 159
-1.618094e-02 7.930251e-01 -3.211603e+00 199 198 193
5.883497e-01 3.791403e-01 -2.578378e+00 172 184 170
2.887500e-01 7.979809e-01 -2.784881e+00 182 191 189
-4.344972e-01 -7.899997e-01 -2.510336e+00 138 136 136
-4.453846e-01 -7.678310e-01 -2.529113e+00 135 135 132
-7.612833e-02 -8.068359e-01 -2.479501e+00 147 146 147
-4.013591e-01 -4.364395e-01 -2.912177e+00 57 52 3
-4.777572e-01 -5.268767e-02 -3.269964e+00 58 64 61
-2.550407e-01 -2.531107e-01 -2.954136e+00 177 133 130
-2.413379e-01 -2.562442e-01 -2.943927e+00 185 140 142
-2.885046e-01 -6.686353e-02 -2.979665e+00 212 214 211
