ply
format ascii 1.0
element face 0
property list uchar int vertex_indices
element vertex 129
property float x
property float y
property float z
property uchar diffuse_red
property uchar diffuse_green
property uchar diffuse_blue
end_header
-5.460177e-01 5.922226e-01 -3.400183e+00 135 189 173
-3.220098e-01 8.050203e-02 -3.003681e+00 210 207 200
-3.502439e-01 1.265520e-02 -3.018394e+00 207 208 202
-2.815754e-01 6.501089e-01 -3.529029e+00 206 94 130
2.886827e-01 7.724100e-01 -2.778291e+00 208 220 220
-3.458258e-01 -7.938615e-02 -3.025498e+00 23 23 21
-3.003198e-01 -4.826150e-02 -2.984386e+00 23 22 24
-3.003198e-01 -4.826150e-02 -2.984386e+00 23 22 24
-3.150506e-01 1.138062e-02 -2.990888e+00 213 215 209
-2.681785e-01 -5.601522e-03 -2.953625e+00 204 212 204
7.376200e-01 -7.957062e-02 -2.528606e+00 205 225 223
-1.262406e-01 4.648486e-01 -3.137054e+00 190 221 179
-1.262406e-01 4.648486e-01 -3.137054e+00 190 221 179
-1.913028e-01 -1.858598e-01 -2.918250e+00 206 212 212
-3.346487e-01 -4.759552e-03 -3.012161e+00 21 20 22
-3.131385e-01 -1.240534e-02 -2.998913e+00 26 24 27
-3.012878e-01 6.400932e-04 -2.981939e+00 206 205 202
7.402149e-01 -5.534572e-02 -2.525085e+00 74 62 57
-2.658632e-01 -2.924830e-01 -2.948854e+00 217 34 24
7.623572e-01 -6.743206e-02 -2.495934e+00 195 219 214
-2.742025e-01 1.177931e-01 -2.953256e+00 71 38 22
3.376722e-01 7.975095e-01 -2.759417e+00 215 224 225
-3.790566e-01 -1.362523e-01 -3.044548e+00 212 189 53
3.848113e-01 8.540958e-02 -2.860694e+00 87 76 19
-5.878396e-01 6.633598e-01 -3.420087e+00 201 112 134
7.687140e-01 -4.987319e-02 -2.499074e+00 74 65 64
7.687140e-01 -4.987319e-02 -2.499074e+00 74 65 64
-5.672368e-02 5.163696e-01 -2.834185e+00 192 160 171
6.228815e-01 4.828249e-01 -2.508994e+00 225 239 239
4.648918e-01 5.478160e-01 -2.664153e+00 228 243 250
7.905436e-01 3.079009e-01 -2.511458e+00 209 222 219
3.168538e-01 7.461905e-01 -2.843376e+00 93 90 74
3.752885e-01 4.558346e-02 -2.863149e+00 191 232 94
6.482826e-01 -3.069018e-01 -2.633693e+00 178 204 203
6.194782e-01 -2.735216e-01 -2.654210e+00 21 27 28
7.402149e-01 -5.534572e-02 -2.525085e+00 74 62 57
7.624042e-01 2.865690e-01 -2.530807e+00 210 227 224
6.309335e-01 -2.182914e-01 -2.649379e+00 171 200 199
8.201732e-01 -1.781486e-01 -2.471229e+00 193 210 207
7.855959e-01 -5.824606e-02 -2.493884e+00 205 225 223
4.913047e-01 5.233362e-01 -2.661389e+00 217 234 241
-6.305045e-01 -3.858656e-01 -3.120502e+00 25 70 142
6.496610e-01 -2.190613e-01 -2.636120e+00 155 173 167
5.111303e-01 5.258560e-01 -2.663773e+00 10 32 44
2.230330e-01 6.775538e-01 -2.878127e+00 131 133 125
3.456207e-01 7.752337e-01 -2.755381e+00 198 214 211
4.129012e-01 3.526583e-01 -2.633305e+00 13 14 11
-2.992208e-01 -5.278583e-01 -2.771934e+00 238 245 87
-4.990091e-01 7.324416e-01 -3.484366e+00 35 22 16
6.865214e-01 -1.547225e-01 -2.602711e+00 85 81 74
-2.065349e-01 -4.132401e-01 -2.951865e+00 235 41 32
-8.904554e-01 -3.934336e-01 -3.228807e+00 24 24 23
6.343874e-01 -1.512419e-01 -2.631286e+00 187 204 201
6.622541e-01 8.896479e-02 -2.621208e+00 182 203 200
6.728662e-01 3.318740e-01 -2.498001e+00 210 223 222
5.217830e-01 5.076268e-01 -2.674430e+00 191 218 225
4.924337e-01 5.516447e-01 -2.668278e+00 48 58 64
-5.540103e-01 -5.360462e-01 -2.889059e+00 175 124 56
6.990288e-01 -1.357326e-01 -2.597202e+00 77 78 76
6.495618e-01 -1.360241e-01 -2.625838e+00 193 212 210
6.352453e-01 6.995707e-02 -2.620561e+00 200 218 216
7.750361e-01 3.493617e-01 -2.467351e+00 209 224 226
-2.230764e-01 6.432928e-01 -3.513447e+00 57 172 203
4.108895e-01 6.134770e-01 -2.746667e+00 80 57 39
-6.710508e-01 -6.519190e-01 -2.672922e+00 25 26 29
-1.228737e-01 -5.910133e-01 -2.718784e+00 30 45 16
-2.673581e-01 -5.557278e-01 -2.721256e+00 165 188 150
-8.685626e-01 -3.603471e-01 -3.243421e+00 45 45 45
9.088874e-01 -2.712184e-01 -2.496369e+00 111 109 115
9.386049e-01 -2.441079e-01 -2.519114e+00 156 170 168
2.911663e-01 -2.278878e-01 -2.484988e+00 123 199 99
8.396913e-01 -2.165677e-01 -2.474504e+00 191 209 209
6.533538e-01 -1.007616e-01 -2.606337e+00 173 193 191
6.161906e-01 -1.306548e-03 -2.588922e+00 168 184 181
4.424952e-01 -4.833975e-03 -3.400031e+00 31 71 6
5.716902e-01 1.470094e-01 -2.505628e+00 82 75 68
-4.242973e-02 1.837970e-01 -2.910958e+00 60 82 69
-2.429938e-01 1.006389e+00 -3.406106e+00 176 175 180
-4.845766e-01 -6.217720e-01 -2.682910e+00 97 111 121
-1.555559e-01 -5.977402e-01 -2.670024e+00 57 109 41
-4.812072e-01 -6.018085e-01 -2.754247e+00 65 84 82
2.531866e-01 -3.036205e-01 -2.486205e+00 116 181 93
2.646563e-01 -2.787821e-01 -2.477806e+00 80 135 54
2.781907e-01 -2.649541e-01 -2.471287e+00 80 145 61
9.188460e-01 -2.293972e-01 -2.495700e+00 126 129 134
9.223097e-01 -2.133808e-01 -2.505515e+00 169 179 180
6.565226e-01 -1.308003e-01 -2.616402e+00 191 209 205
5.724128e-01 1.551981e-02 -2.570849e+00 198 221 219
-3.298562e-01 3.223607e-02 -3.009673e+00 13 14 12
-2.862661e-01 4.274272e-02 -2.974729e+00 59 57 58
6.674123e-01 1.182762e-01 -2.623217e+00 178 199 191
7.066187e-01 1.411784e-01 -2.559226e+00 174 194 192
7.066187e-01 1.411784e-01 -2.559226e+00 174 194 192
-2.396409e-01 3.055819e-01 -3.200880e+00 34 134 164
3.632998e-01 4.087856e-01 -2.568779e+00 128 207 115
3.381974e-01 4.158918e-01 -2.562568e+00 133 210 116
-1.603850e-01 6.357160e-01 -3.489179e+00 209 107 135
4.946241e-01 4.962942e-01 -2.653933e+00 137 203 134
5.111303e-01 5.258560e-01 -2.663773e+00 10 32 44
6.228443e-01 5.101783e-01 -2.507300e+00 211 222 220
1.166507e-01 8.551799e-01 -3.098386e+00 162 165 158
1.166507e-01 8.551799e-01 -3.098386e+00 162 165 158
4.402643e-01 7.892266e-01 -2.725861e+00 181 191 184
-5.652204e-01 -6.861258e-01 -2.608688e+00 142 152 151
-1.404271e-01 -6.066489e-01 -2.678911e+00 102 180 92
-5.969120e-01 -5.648833e-01 -2.847103e+00 44 70 66
6.471969e-01 -4.543640e-01 -2.577768e+00 107 131 135
2.298590e-01 -3.507244e-01 -2.482030e+00 80 130 49
6.380542e-01 -3.276329e-01 -2.618417e+00 55 73 73
3.421459e-01 -3.106377e-01 -2.490498e+00 61 107 43
3.078976e-01 -2.826531e-01 -2.486707e+00 71 133 50
-1.808266e-01 -1.849762e-01 -2.892240e+00 217 222 213
6.612972e-01 -1.174638e-01 -2.612496e+00 112 118 114
6.612972e-01 -1.174638e-01 -2.612496e+00 112 118 114
-3.285839e-01 -1.070519e-01 -3.003615e+00 34 36 33
-2.779992e-01 1.492964e-01 -2.929054e+00 134 95 81
-4.296104e-01 3.344521e-01 -3.307239e+00 135 170 191
5.113396e-01 3.411253e-01 -2.683229e+00 163 212 132
6.808742e-01 3.358703e-01 -2.493378e+00 219 231 231
6.860095e-01 3.470318e-01 -2.492994e+00 203 217 218
7.949313e-01 3.501383e-01 -2.469752e+00 167 179 179
3.669039e-01 3.835648e-01 -2.588459e+00 94 80 35
3.466506e-02 4.340034e-01 -2.399797e+00 203 156 172
4.423418e-01 7.772337e-01 -2.733227e+00 206 218 214
4.423418e-01 7.772337e-01 -2.733227e+00 206 218 214
-9.850962e-03 3.276833e-02 5.379601e-02 0 255 0
-9.695206e-03 3.221971e-02 3.799261e-03 255 255 0
6.777993e-01 7.846712e-02 -7.050074e-01 255 0 0
6.624057e-01 7.846977e-02 -7.525788e-01 255 255 0
